ply
format ascii 1.0
element vertex 1161
property float x
property float y
property float z
property uchar red
property uchar green
property uchar blue
end_header
 -1.36902 -0.803619   5.85036 255 255 255
-1.24865 0.357424  5.73614 255 255 255
 0.211745 -0.401332   5.68797 255 255 255
-0.238755 -0.518399   5.59606 255 255 255
0.361537 0.505516  5.56843 255 255 255
 0.303036 -0.373406    5.7093 255 255 255
 0.3396 0.51375 5.65216 255 255 255
  -1.2872 -0.777535    5.8653 255 255 255
0.060324 0.456708  5.39267 255 255 255
 -1.06951 -0.714975   5.90461 255 255 255
0.323841 0.524419  5.71546 255 255 255
 -1.3303 0.351809  5.65207 255 255 255
-1.26215  0.36883  5.72717 255 255 255
0.0805254  0.470647     5.452 255 255 255
0.355536 0.515218  5.58796 255 255 255
0.326554 0.527965  5.70352 255 255 255
 0.354249 -0.339151   5.91777 255 255 255
0.337178 0.515764  5.55601 255 255 255
0.0478657 -0.429273   5.63987 255 255 255
 -1.17087 -0.728464   5.88305 255 255 255
-1.06824 -0.69989  5.90176 255 255 255
-1.28596 0.376591  5.66213 255 255 255
 -1.3456 -0.76902  5.84996 255 255 255
0.0883486  0.490558   5.47478 255 255 255
-0.101946 -0.456487   5.61914 255 255 255
  -1.3157 -0.752119   5.85326 255 255 255
0.264094 0.519262  5.53418 255 255 255
0.0489237  0.483185   5.38956 255 255 255
-0.285824 -0.500876   5.58124 255 255 255
0.0933694  0.495414    5.4465 255 255 255
 -1.55206 -0.809312   5.80687 255 255 255
0.0914881 -0.400229   5.65734 255 255 255
 -1.49842 -0.793161   5.81642 255 255 255
0.323099 0.553185  5.71364 255 255 255
-0.326178  0.454553   5.39863 255 255 255
 0.351635 -0.323448   5.73618 255 255 255
  -1.1572 -0.696832   5.87934 255 255 255
0.00384847   0.487057    5.37397 255 255 255
0.073792 0.505233  5.46945 255 255 255
 -1.47313 -0.777319   5.82046 255 255 255
 -1.50708 -0.784734   5.81294 255 255 255
 -1.2852 0.408015  5.66481 255 255 255
0.0469802 -0.402701   5.58424 255 255 255
 -1.16374 -0.691291   5.87732 255 255 255
 -1.32642 -0.728827    5.8456 255 255 255
0.344487  0.56306  5.62457 255 255 255
 0.334019 -0.313505   5.82958 255 255 255
-1.28117 0.418284  5.66074 255 255 255
-1.42065 -0.75122  5.82969 255 255 255
0.358519 0.558423  5.57228 255 255 255
0.352949 0.561803   5.5902 255 255 255
0.319372 0.584747  5.73764 255 255 255
-0.211317 -0.454037   5.59292 255 255 255
-0.187466  0.501525   5.42443 255 255 255
-0.187179  0.501589   5.42423 255 255 255
0.0668911  0.535165    5.4792 255 255 255
  -1.2084 -0.676941   5.86621 255 255 255
-1.26995 0.446186  5.71596 255 255 255
 -1.25501 -0.687448   5.85608 255 255 255
0.0455703   0.53832   5.40932 255 255 255
 0.344245 -0.274911   5.90549 255 255 255
 0.345707 -0.278923   5.76859 255 255 255
 -1.22407 -0.655818   5.85706 255 255 255
-0.290381  0.517823   5.39652 255 255 255
 0.336172 -0.279902   5.69981 255 255 255
-1.28946 0.468585   5.6455 255 255 255
 0.397661 -0.252419   5.91425 255 255 255
 -1.21368 -0.645138   5.85751 255 255 255
0.00782265  -0.363952    5.54857 255 255 255
-1.26531  0.48356  5.68837 255 255 255
0.337637 0.616059  5.64728 255 255 255
  -1.3093 -0.663423   5.83741 255 255 255
-1.30564 0.490524   5.6439 255 255 255
 0.344687 -0.265517   5.77122 255 255 255
 -1.53876 -0.714882   5.79152 255 255 255
0.352569  0.62203   5.5796 255 255 255
-1.16888 0.522692  5.72027 255 255 255
0.0074837  -0.35183   5.54272 255 255 255
0.00834578  -0.351743    5.54206 255 255 255
 0.131177 -0.315929   5.65514 255 255 255
 -1.2965 0.504737  5.63841 255 255 255
0.351796 0.630376  5.58665 255 255 255
-1.21744 0.527986   5.7068 255 255 255
-0.281792  0.561181   5.38641 255 255 255
0.359924 -0.25477  5.70429 255 255 255
 0.354067 -0.254863   5.72973 255 255 255
 0.334592 -0.254739   5.80848 255 255 255
 0.378414 -0.237108   5.90517 255 255 255
-1.21236 0.536624   5.6865 255 255 255
0.0760727 -0.320912   5.58395 255 255 255
0.0855068 -0.312103   5.58665 255 255 255
-0.349579  0.574997   5.36925 255 255 255
0.0754107 -0.312375   5.57387 255 255 255
0.350574 0.654818  5.58399 255 255 255
 0.35006 0.648988  5.53508 255 255 255
 0.344996 -0.236893   5.76765 255 255 255
-0.058743  0.609287   5.43854 255 255 255
-1.10268 0.564767  5.67349 255 255 255
0.326085 0.670929  5.68027 255 255 255
-1.28472 0.551132  5.65878 255 255 255
 -1.15665 -0.580635   5.85304 255 255 255
 0.357195 -0.231151   5.70994 255 255 255
 0.365696 -0.217221   5.89936 255 255 255
 -1.31162 -0.615914   5.83436 255 255 255
0.319567 0.684977  5.70452 255 255 255
 -1.37202 -0.624884   5.81915 255 255 255
-0.248712 -0.372801   5.56571 255 255 255
 -1.32012 -0.608173   5.83287 255 255 255
-0.00826506    0.629628     5.44648 255 255 255
0.079144 -0.29441  5.53601 255 255 255
-0.250662  0.610494   5.38711 255 255 255
0.279759 0.664636   5.5136 255 255 255
-0.283134 -0.374868   5.55901 255 255 255
 -1.0709 0.591562  5.66558 255 255 255
 0.328212 -0.215942   5.83254 255 255 255
-1.10508 0.592883  5.66403 255 255 255
0.146708 0.672432   5.4775 255 255 255
0.345405 0.694068  5.52442 255 255 255
-1.08423  0.61962  5.66468 255 255 255
 0.346328 -0.350807   5.77746 255 255 255
 -1.33082 -0.364958   5.77512 255 255 255
 -1.43037 -0.545789   5.78836 255 255 255
0.326387 -0.52938   5.8716 255 255 255
 -1.27942 -0.305583   5.78533 255 255 255
  0.230532 -0.0612686    5.62464 255 255 255
 -1.26129 -0.300165   5.81052 255 255 255
0.332849 0.436513  5.76957 255 255 255
-0.200364 -0.114626   5.53245 255 255 255
0.0284676 -0.107365   5.50561 255 255 255
 -1.29573 -0.759353    5.8572 255 255 255
 -1.3366 -0.35568  5.76713 255 255 255
 -1.37823 -0.530567   5.79534 255 255 255
-1.33524 -0.30448  5.76983 255 255 255
-1.23349 0.483518  5.73369 255 255 255
 0.121852 -0.206761   5.64066 255 255 255
0.360818 0.430375  5.58642 255 255 255
 -1.26342 -0.742564   5.86618 255 255 255
0.355895 0.434663  5.61093 255 255 255
-1.28343 0.257322  5.67899 255 255 255
0.0712546 -0.605686   5.68998 255 255 255
 0.097777 -0.209743   5.56078 255 255 255
-1.27675 -1.11093  5.92511 255 255 255
 0.317788 0.0220271   5.83303 255 255 255
0.0291763 -0.094751   5.54523 255 255 255
0.0874475 -0.212502   5.54204 255 255 255
 -1.4896 -1.17545  5.88761 255 255 255
-1.44737 -1.16398  5.89845 255 255 255
 -1.34457 -0.760315   5.84806 255 255 255
0.324349 0.451704  5.72927 255 255 255
-1.59974 -1.20498  5.87171 255 255 255
 -1.33739 -0.287267   5.76456 255 255 255
 -1.46959 -0.526769   5.77992 255 255 255
0.0122456   0.38292   5.39114 255 255 255
0.346046 0.616717  5.61165 255 255 255
 -1.46161 -0.310776   5.74047 255 255 255
-1.33703 -1.11887  5.91279 255 255 255
-1.27368 -1.09985  5.92385 255 255 255
0.00520713   0.383081    5.38849 255 255 255
0.0657102 -0.597585   5.68842 255 255 255
 -1.34335 -0.284847   5.75911 255 255 255
 -1.13996 -0.698966   5.88461 255 255 255
 -1.35705 -0.288312   5.73148 255 255 255
   0.349192 -0.00694756     5.65245 255 255 255
 -1.27291 -0.267745   5.78613 255 255 255
-1.23612 -1.08269  5.93081 255 255 255
0.00582536   0.387497    5.38284 255 255 255
0.353119  0.45242  5.60889 255 255 255
0.354042  0.63645  5.57223 255 255 255
 0.0423883 -0.0664492    5.51446 255 255 255
-1.17846 0.536023  5.70548 255 255 255
-1.22271 0.295813  5.75956 255 255 255
 0.339175 0.0362033   5.74324 255 255 255
-1.25601  0.29966  5.76007 255 255 255
 -1.23711 -0.954644   5.89826 255 255 255
 0.321058 0.0407939   5.81726 255 255 255
-1.10825 -1.03669  5.95057 255 255 255
-0.00873508   -0.710143     5.66022 255 255 255
 0.355047 -0.597898   5.76288 255 255 255
 -1.12063 -0.687881   5.88822 255 255 255
 0.328929 -0.329715   5.71187 255 255 255
 -1.48552 -0.296569   5.73222 255 255 255
 -1.27897 -0.253828    5.7807 255 255 255
 -1.50688 -0.299161   5.72709 255 255 255
-1.26453  0.31553  5.75208 255 255 255
 -1.42549 -0.478811   5.78105 255 255 255
0.0929527 -0.390717   5.65739 255 255 255
 -1.26767 -0.274973   5.80894 255 255 255
0.351401 0.655547  5.58503 255 255 255
  0.33594 0.0516662   5.75092 255 255 255
0.129782  0.43905  5.51749 255 255 255
-0.346385  0.376524   5.40747 255 255 255
0.331597 0.667727  5.64868 255 255 255
 0.325326 0.0596097   5.79747 255 255 255
0.331747 0.670887  5.66033 255 255 255
 0.324273 0.0590612   5.79759 255 255 255
  -1.1782 -0.692096   5.87392 255 255 255
0.129316 0.445479  5.50642 255 255 255
-1.33936 -1.09481  5.90787 255 255 255
 0.339784 -0.315022   5.80247 255 255 255
0.356369 -0.49495  5.76617 255 255 255
0.320084 0.678852  5.69967 255 255 255
  0.32929 0.0344113   5.78317 255 255 255
 -0.271884 -0.0673809    5.50693 255 255 255
 -1.21977 -0.416134    5.8292 255 255 255
0.0876438  0.445459   5.48709 255 255 255
 0.319267 -0.592912   5.94637 255 255 255
 -1.19423 -0.692262   5.87059 255 255 255
 -1.25787 -0.255006   5.84744 255 255 255
 -1.23292 -0.701537   5.86293 255 255 255
0.121912 0.459698  5.50256 255 255 255
 -1.23016 -0.700885   5.86182 255 255 255
  0.3359 0.503422  5.67136 255 255 255
 0.342135 0.0387271   5.72422 255 255 255
 0.328811 0.0766759   5.82715 255 255 255
-1.40078 -0.98013  5.87312 255 255 255
  0.351122 -0.0790004    5.71515 255 255 255
0.0798569  0.457345   5.46801 255 255 255
 -1.22718 -0.199718    5.8616 255 255 255
-1.23205 -0.69345  5.86249 255 255 255
 -1.36365 -0.269451   5.72761 255 255 255
-0.123574   0.62249   5.41749 255 255 255
 -1.35909 -0.254539   5.73006 255 255 255
-1.26455 0.368756   5.7278 255 255 255
-1.25629 0.370473  5.73918 255 255 255
 -1.56571 -0.252379   5.70723 255 255 255
-1.06363   -0.638  5.87444 255 255 255
-1.29373  -0.1979  5.76323 255 255 255
 -1.45276 -0.972832   5.86022 255 255 255
 0.354585 0.0868466   5.66033 255 255 255
-1.55749 -0.24648  5.70967 255 255 255
 0.135819 -0.636471    5.7077 255 255 255
-1.29403 0.370254  5.66488 255 255 255
  0.32965 0.0711155   5.82822 255 255 255
 -1.26622 -0.918769   5.89344 255 255 255
-1.49562 -1.11223  5.87791 255 255 255
 -1.32692 -0.697452   5.84057 255 255 255
 0.105629 -0.117112    5.6197 255 255 255
 0.117172 0.0385131   5.50781 255 255 255
 0.355119 0.0639804   5.66815 255 255 255
-1.29268 0.372714   5.6571 255 255 255
 0.111867 0.0159041   5.55504 255 255 255
 -1.20075 -0.658444   5.85969 255 255 255
-0.252863  -0.02007   5.50251 255 255 255
 0.329624 -0.471771    5.8571 255 255 255
0.360926 0.531406  5.56347 255 255 255
 -1.46909 -0.214837   5.72438 255 255 255
-1.33261  -1.0456  5.90215 255 255 255
0.320419  0.55361  5.74345 255 255 255
0.358012 0.687041  5.54626 255 255 255
 0.315078 -0.276684   5.89428 255 255 255
-1.21795 0.416888  5.75671 255 255 255
-1.27185 -1.02541  5.91262 255 255 255
  -1.2608 -0.155123   5.82631 255 255 255
 0.353568 -0.460147   5.76985 255 255 255
 0.170208 -0.316665   5.66416 255 255 255
0.355218 0.544946  5.58385 255 255 255
-1.22854 -1.00616   5.9161 255 255 255
 -1.39813 -0.182449    5.7314 255 255 255
  -0.252893 -0.00360807      5.4992 255 255 255
0.205084 0.056393  5.60717 255 255 255
0.360414 0.114057  5.63688 255 255 255
0.125918 -0.61602  5.70113 255 255 255
 -1.38578 -0.208111   5.73034 255 255 255
0.101518 0.672965  5.46553 255 255 255
 0.348747 -0.258681   5.76226 255 255 255
0.0617598 0.0278974   5.49018 255 255 255
0.0869518  0.515692   5.49149 255 255 255
 -1.11704 -0.604074   5.86418 255 255 255
-1.26567 -0.32905  5.79352 255 255 255
 0.336383 -0.547978   5.85943 255 255 255
 -1.27679 -0.181317   5.79324 255 255 255
 -1.40818 -0.178485   5.72794 255 255 255
0.350702   0.1204  5.67622 255 255 255
 -1.27586 -0.179272   5.80933 255 255 255
0.0732847 -0.324297   5.62142 255 255 255
 -1.57333 -0.707469   5.78377 255 255 255
 -1.18889 -0.985534   5.92062 255 255 255
-1.28648 -0.18223  5.76756 255 255 255
 -1.39356 -0.201597   5.73406 255 255 255
0.344418 0.561947  5.61901 255 255 255
  -1.3214 -0.909756   5.88926 255 255 255
0.327535 0.576645  5.74149 255 255 255
 0.32145 0.578893   5.7383 255 255 255
 -1.36759 -0.651291   5.82247 255 255 255
0.326318 0.142701  5.77704 255 255 255
0.0780837  0.527151   5.46525 255 255 255
 -1.30758 -0.135582   5.75038 255 255 255
  -1.2392 -0.115364   5.84005 255 255 255
-0.27994 0.487897  5.40307 255 255 255
 -1.38458 -0.651456   5.81589 255 255 255
 0.120815 0.0599581   5.55472 255 255 255
0.341022 0.573396  5.63938 255 255 255
 0.290098 -0.465566   5.71781 255 255 255
-1.15419 -0.96908  5.92843 255 255 255
-1.33989 -0.17051  5.73952 255 255 255
-1.46567 -0.15734  5.71271 255 255 255
0.078899  0.52682  5.44871 255 255 255
 0.419171 -0.588998   5.97409 255 255 255
-1.56831 -1.08883  5.86509 255 255 255
-0.207179 -0.603433   5.61846 255 255 255
 0.117158 0.0679302   5.55952 255 255 255
0.268073 0.553765  5.53004 255 255 255
-1.22832 -1.08979  5.93378 255 255 255
 -1.30066 -0.125414   5.75518 255 255 255
-1.45337 -1.05511  5.87449 255 255 255
 -1.32381 -0.164273   5.75056 255 255 255
 -1.24254 -0.103681   5.84054 255 255 255
 -1.35231 -0.636653   5.82803 255 255 255
0.173689 0.543603  5.50719 255 255 255
 -1.23149 -0.278354   5.86558 255 255 255
 -1.39346 -0.645551   5.81526 255 255 255
 -1.15927 -0.587473   5.85095 255 255 255
0.309561 0.561437  5.53907 255 255 255
  -1.3049 -0.151813   5.75628 255 255 255
 -1.19756 -0.966897   5.91841 255 255 255
 -1.42582 -0.163229   5.73152 255 255 255
 0.348926 -0.234424   5.69546 255 255 255
0.0892508  0.540709   5.48779 255 255 255
0.345724 0.167103  5.69087 255 255 255
0.344906 0.580963  5.62105 255 255 255
0.345531 0.167268  5.69108 255 255 255
 -1.23712 -0.265998   5.86282 255 255 255
 0.340202 -0.230996   5.77607 255 255 255
 0.330568 -0.521249   5.85185 255 255 255
 0.336539 -0.230435   5.79905 255 255 255
-1.53209 -1.05262  5.85555 255 255 255
 0.0755814 -0.0398563    5.53928 255 255 255
0.357943   0.1393  5.64518 255 255 255
 -1.22107 -0.858948   5.89448 255 255 255
0.319483 0.180473   5.8063 255 255 255
0.0588785 0.0782774   5.47601 255 255 255
 0.0743327 -0.0398546    5.54016 255 255 255
 0.118287 -0.287634   5.64446 255 255 255
0.0636979  0.542323   5.43642 255 255 255
0.332596 -0.22722  5.81243 255 255 255
0.355688 0.176949  5.64552 255 255 255
 -0.245306 -0.0961438    5.51859 255 255 255
0.338638 0.182059  5.72112 255 255 255
-1.53604 -1.04648  5.85849 255 255 255
 0.332661 -0.429426   5.85009 255 255 255
0.372933 0.169075   5.8239 255 255 255
0.338471 0.182125  5.72128 255 255 255
-0.239027 -0.367791   5.56926 255 255 255
-1.45384 -1.13825  5.88839 255 255 255
 -1.24629 -0.853799   5.88985 255 255 255
-1.3191 -1.0971 5.91304 255 255 255
  0.31919 -0.216694   5.88532 255 255 255
0.175627 0.566609  5.50546 255 255 255
 0.111162 -0.278443   5.63334 255 255 255
0.359798 0.179273  5.62823 255 255 255
 -1.30698 -0.976077   5.89301 255 255 255
 0.329454 -0.215996    5.8307 255 255 255
-1.34994  0.46224  5.63823 255 255 255
 0.0879438 -0.0254583    5.56913 255 255 255
 -1.45891 -0.300652   5.73936 255 255 255
  -1.25862 -0.0740911    5.82574 255 255 255
 0.320694 -0.212228   5.86464 255 255 255
-1.35304 -0.87567  5.86448 255 255 255
 -0.28953 -0.370604   5.55857 255 255 255
 0.34614 0.608895  5.60679 255 255 255
  -1.39839 -0.0817196    5.71333 255 255 255
-0.0502438   0.559742    5.44979 255 255 255
 -1.15841 -0.922052   5.91394 255 255 255
0.0846902  0.136309   5.47804 255 255 255
0.0933938  0.129569   5.52798 255 255 255
 -1.18667 -0.557494   5.84008 255 255 255
  -1.40376 -0.0921317     5.7158 255 255 255
0.0816604  0.138525   5.47382 255 255 255
 -1.37683 -0.980955   5.87932 255 255 255
-1.38658 -1.09458  5.89642 255 255 255
 0.352669 -0.494308   5.78864 255 255 255
 -1.38795 -0.981472   5.87617 255 255 255
   -1.4038 -0.0694208    5.71105 255 255 255
-1.13645 -1.01774  5.94363 255 255 255
0.337658 0.205239  5.71766 255 255 255
0.336986 0.205341  5.71847 255 255 255
-0.254689 -0.582065     5.605 255 255 255
0.360197 0.624008  5.54085 255 255 255
 0.35021 0.189631  5.66658 255 255 255
0.0547405  0.140194   5.45465 255 255 255
0.354309 0.624761  5.53803 255 255 255
0.069586 0.144231  5.47035 255 255 255
-0.211568 -0.336395   5.57087 255 255 255
 0.331474 -0.488926   5.84651 255 255 255
0.055786 0.127134  5.45655 255 255 255
0.400113 0.227324  5.78529 255 255 255
-1.61612 -1.03242  5.83528 255 255 255
 -1.33604 -0.953771   5.88339 255 255 255
  -1.41176 -0.0565196    5.70737 255 255 255
 -1.28476 -0.031777   5.75849 255 255 255
   -1.3605 -0.0433627    5.71699 255 255 255
  -1.24644 -0.0159422    5.82251 255 255 255
  0.0999509 -0.00307137     5.49268 255 255 255
0.0564551  0.133473   5.45894 255 255 255
 -1.35232 -0.573194   5.81183 255 255 255
0.350664 0.200023  5.66445 255 255 255
0.209125 0.171409  5.58515 255 255 255
-1.49036 -0.26788  5.72986 255 255 255
 -1.26138 -0.012506   5.79848 255 255 255
  0.1064 0.148683  5.50914 255 255 255
  -1.36957 -0.0362827    5.71225 255 255 255
 0.359617 -0.180912   5.68912 255 255 255
 0.332479 -0.479066   5.86273 255 255 255
  -1.28306 -0.0100498    5.71915 255 255 255
 -1.22977 -0.908923   5.90035 255 255 255
0.257097 0.638481  5.51195 255 255 255
 0.359918 0.0736542   5.64646 255 255 255
 0.287979 -0.492545    5.7214 255 255 255
0.351806 0.210742  5.66009 255 255 255
 0.280456 0.0614283   5.62382 255 255 255
  0.34511 -0.164444   5.75717 255 255 255
 -1.10394 -0.869339    5.9238 255 255 255
 0.389333 -0.549002   5.96233 255 255 255
0.0790928  0.152742   5.46916 255 255 255
  -1.53093 -0.0749386    5.68026 255 255 255
-1.32477 -0.93177  5.88258 255 255 255
  0.36365 0.0939442   5.83199 255 255 255
 -1.36328 -0.540151    5.8017 255 255 255
 0.332668 -0.470004   5.84525 255 255 255
 -1.35539 -0.219951    5.7405 255 255 255
 0.263389 -0.410715   5.70358 255 255 255
 -1.58392 -0.586954   5.76056 255 255 255
   -1.42288 -0.00553455     5.69926 255 255 255
-1.07237 0.574703  5.66604 255 255 255
 -1.28497 0.0183269   5.72385 255 255 255
0.0875767  0.170896   5.53023 255 255 255
 -1.55545 -0.873228   5.81881 255 255 255
0.251972 0.205247  5.58905 255 255 255
 0.388573 -0.135848    5.8854 255 255 255
0.0628898  0.632939   5.46432 255 255 255
  -1.34303 -0.0193199    5.71537 255 255 255
 0.317165 -0.375354   5.90851 255 255 255
   -1.3989 -0.0273493    5.70355 255 255 255
 0.340185 0.0853437    5.7288 255 255 255
0.282831 0.657351  5.51584 255 255 255
 -1.26813 0.0401144    5.7766 255 255 255
0.0889734  0.639697   5.46815 255 255 255
0.0688538 -0.225232   5.51073 255 255 255
  0.33689 -0.147631   5.77964 255 255 255
-1.32467 -1.03439  5.90053 255 255 255
 0.314233 -0.460733   5.91911 255 255 255
 0.399597 -0.348312   5.92975 255 255 255
  -1.50653 -0.0323346    5.67865 255 255 255
 -1.27936 0.0371774   5.74441 255 255 255
-1.12748 -0.85645  5.91551 255 255 255
  -1.2336 -0.184152   5.84054 255 255 255
 0.105807 -0.208662   5.61818 255 255 255
  -1.54438 -0.0345543    5.67033 255 255 255
-1.15243 0.582129  5.65709 255 255 255
 0.349767 -0.133656   5.87643 255 255 255
 0.168864 -0.417237   5.68898 255 255 255
-0.294122   0.60616   5.38217 255 255 255
 -1.44348 -0.528095   5.78166 255 255 255
 -1.25564 -0.480155   5.81753 255 255 255
-1.58751 -1.11014  5.86144 255 255 255
0.0921865  0.221369   5.49221 255 255 255
 -1.58279 -0.978859    5.8363 255 255 255
  -1.2874 0.0151381   5.73387 255 255 255
0.0313158  0.209679   5.43089 255 255 255
 0.335163 -0.448008   5.84548 255 255 255
 -1.27262 0.0238894   5.76991 255 255 255
-1.56465 -0.54492  5.75579 255 255 255
0.217926  -0.4003  5.69256 255 255 255
0.344043 0.688831  5.60476 255 255 255
 -1.26518 0.0543783   5.73623 255 255 255
 0.311529 -0.449331   5.91912 255 255 255
 -1.47088 0.0202789   5.67831 255 255 255
  -1.6237 -0.981106   5.82585 255 255 255
 -1.27623 -0.175367   5.83375 255 255 255
 -1.27355 0.0304626   5.75604 255 255 255
 -1.24496 0.0681605   5.80845 255 255 255
 -1.42749 -0.926308   5.85613 255 255 255
-1.27318 -1.01233  5.90789 255 255 255
0.319196 0.701394  5.69975 255 255 255
   -1.4135 0.00493679    5.69611 255 255 255
0.334551 0.285561  5.71559 255 255 255
 -1.57145 -0.539629   5.75349 255 255 255
-1.12149 0.601473  5.65627 255 255 255
 -1.29777 -0.781289   5.86179 255 255 255
0.388761 0.281175  5.77368 255 255 255
 0.314688 -0.446222   5.92337 255 255 255
 0.336631 -0.124379    5.7784 255 255 255
 -1.26897 -0.879805   5.88252 255 255 255
0.0895791  0.232606   5.50814 255 255 255
 0.33429 -0.12405  5.79105 255 255 255
0.0563802 0.0422272   5.48374 255 255 255
0.219591 0.257488  5.57434 255 255 255
  -1.2648 -0.467992   5.81261 255 255 255
 -1.47141 0.0301607   5.67535 255 255 255
 -1.21284 -0.851397   5.89724 255 255 255
 -1.36766 -0.481995   5.79125 255 255 255
 -1.29854 0.0383146   5.70997 255 255 255
 0.317309 -0.434449   5.92614 255 255 255
 -1.40067 -0.901751   5.85963 255 255 255
 -1.33188 -0.160331   5.74431 255 255 255
 0.198994 -0.474085   5.69883 255 255 255
-0.341908  0.629083   5.36056 255 255 255
 -1.20346 0.0649604   5.81057 255 255 255
-0.331005 -0.621126   5.59471 255 255 255
 -1.27672 -0.451251   5.80604 255 255 255
-1.25404 -0.44286    5.815 255 255 255
 -1.28165 -0.751884   5.85821 255 255 255
-0.196548 -0.580698   5.61637 255 255 255
 0.115142 -0.164999   5.58608 255 255 255
 -1.26728 -0.984441   5.90141 255 255 255
-1.45915 0.042613  5.67639 255 255 255
 -1.31965 -0.759791   5.85304 255 255 255
0.289178 0.707677  5.50733 255 255 255
 -1.40055 -0.893998   5.85783 255 255 255
 0.295541 -0.354903   5.70287 255 255 255
 -1.44283 -0.476144    5.7729 255 255 255
0.090491  0.24508  5.49621 255 255 255
0.102748 0.691527   5.4643 255 255 255
 0.357405 -0.520628   5.76469 255 255 255
 -1.22655 0.0693222   5.81226 255 255 255
 -1.54095 -0.928783   5.83092 255 255 255
0.0382914 0.0697188    5.4636 255 255 255
 -1.11952 -0.809012   5.90559 255 255 255
 -1.28106 0.0550052   5.72313 255 255 255
  0.342471 -0.0904754    5.74763 255 255 255
 -1.51508 -0.478717   5.75711 255 255 255
-0.203279 -0.479949    5.5983 255 255 255
0.319277 -0.42114   5.8868 255 255 255
0.357089 0.303811  5.62104 255 255 255
 -1.50257 -0.472726   5.76161 255 255 255
0.0386317 -0.503723   5.63194 255 255 255
 0.322196 -0.417079    5.8712 255 255 255
0.342892 0.288407  5.68507 255 255 255
0.356811 0.160323  5.81806 255 255 255
 -1.36879 -0.763602   5.84029 255 255 255
 -1.18708 -0.394594   5.88686 255 255 255
 0.345141 -0.327119   5.77613 255 255 255
-0.0887741  -0.535441    5.63881 255 255 255
 -1.42605 0.0656868   5.68204 255 255 255
0.357017 0.286736  5.62461 255 255 255
-0.0819253  -0.184666    5.52321 255 255 255
0.343864 0.309605  5.67524 255 255 255
0.345059 0.290598  5.66975 255 255 255
 -1.29106 -0.415307   5.79999 255 255 255
 0.325706 -0.412715   5.86328 255 255 255
0.352825  0.30851  5.63875 255 255 255
  0.14135 -0.129009   5.62449 255 255 255
0.0857069  -0.48016   5.67036 255 255 255
0.0711567  0.255053   5.45829 255 255 255
 -1.23202 -0.394641   5.81059 255 255 255
0.317662 -0.40579  5.91325 255 255 255
  -1.3672 0.0712937   5.69309 255 255 255
-0.330734  -0.70299   5.60841 255 255 255
0.345988 0.306124  5.66692 255 255 255
-0.0246259  -0.146591    5.62877 255 255 255
-0.320792 -0.214194   5.52225 255 255 255
  0.35925 -0.310694   5.72809 255 255 255
 -1.47443 0.0824382    5.6645 255 255 255
 -1.47736 -0.432376   5.75747 255 255 255
 -1.21142 -0.806221   5.88696 255 255 255
 -1.39097 -0.412887   5.77647 255 255 255
-1.58529 -1.19516  5.87464 255 255 255
-1.32489 0.109065  5.69432 255 255 255
  0.31876 -0.508545   5.90906 255 255 255
 -1.20567 -0.690932   5.86811 255 255 255
 -1.29834 0.0849462   5.70285 255 255 255
0.0359721 -0.482488   5.66026 255 255 255
-0.150294 -0.438417   5.60798 255 255 255
 -1.42485 -0.859185   5.84686 255 255 255
 -1.30856 -0.383491   5.78326 255 255 255
-1.22906 0.139488  5.80695 255 255 255
 0.349926 -0.390962   5.76796 255 255 255
-0.255931 -0.557557   5.60196 255 255 255
 0.350376 -0.389993    5.7747 255 255 255
 -1.23315 -0.357854   5.83059 255 255 255
0.0866166  0.289207   5.50453 255 255 255
0.0929515  0.289308   5.48899 255 255 255
0.093273 0.289283  5.48868 255 255 255
 -1.37215 0.0854277   5.68553 255 255 255
 -1.30897 -0.373463   5.78674 255 255 255
-1.28237 0.132767  5.71548 255 255 255
0.103109 0.125003  5.53015 255 255 255
 -1.29548 -0.696348   5.84657 255 255 255
-1.41651 0.110924  5.67248 255 255 255
  -1.5151 -0.873197   5.82684 255 255 255
 -1.16623 -0.914893   5.91799 255 255 255
-1.27459 0.137806   5.7408 255 255 255
      0.35 -0.0402153    5.70867 255 255 255
-1.29994 0.104704  5.69823 255 255 255
   -1.208 -0.785826   5.88578 255 255 255
 -1.30054 -0.689212   5.85085 255 255 255
 0.27385 0.162275  5.60133 255 255 255
0.335271 0.327201  5.70829 255 255 255
-0.331627 -0.184181   5.51777 255 255 255
 -1.39693 -0.708911    5.8255 255 255 255
 -1.25004 -0.345147   5.81058 255 255 255
0.0598751 -0.454838   5.66379 255 255 255
 -1.47702 -0.392146   5.74984 255 255 255
 0.341358 -0.284396   5.79114 255 255 255
-1.31915 -1.08438  5.91164 255 255 255
 -1.37909 -0.698849   5.83054 255 255 255
 0.204895 -0.414801   5.68943 255 255 255
-0.280241 -0.441012   5.57022 255 255 255
-1.50711  0.11675  5.65131 255 255 255
0.0201402 -0.580474   5.66967 255 255 255
 -1.42053 -0.376344   5.75975 255 255 255
-1.52148 0.118712  5.64807 255 255 255
0.0390847  -0.46043    5.6068 255 255 255
-1.2611 0.17045 5.77777 255 255 255
-1.26123 0.141967  5.78455 255 255 255
0.355795 0.339363  5.62358 255 255 255
-1.38715  0.14691  5.67499 255 255 255
0.321192 0.374057  5.75563 255 255 255
 -1.33773 -0.350205   5.74754 255 255 255
 0.335056 -0.478446   5.84909 255 255 255
-1.43771 -1.10556   5.8851 255 255 255
-0.317218 -0.545636   5.58261 255 255 255
0.332292 0.351229  5.71337 255 255 255
 -1.33516 -0.341681   5.76876 255 255 255
 -1.42423 -0.817696   5.83863 255 255 255
-1.34144 -0.34161  5.74637 255 255 255
 0.34545 0.349827   5.6429 255 255 255
 -1.56432 -0.714793   5.78604 255 255 255
 -1.21102 -0.759297   5.87712 255 255 255
 -1.33055 -0.332141   5.77827 255 255 255
-1.45554 0.159654  5.65598 255 255 255
 -1.24336 -0.305891   5.86061 255 255 255
  -1.39496 -0.0384373    5.70709 255 255 255
 0.345888 -0.248751   5.76222 255 255 255
0.357453 0.380502  5.58581 255 255 255
-1.52466  0.12707  5.64591 255 255 255
-1.40173 0.175133  5.66362 255 255 255
-1.33775 -0.32474  5.77732 255 255 255
-0.303984  0.263192   5.43809 255 255 255
0.106591 0.177214  5.50394 255 255 255
  -1.37076 -0.0255739    5.71566 255 255 255
 0.341947 -0.559045   5.84319 255 255 255
   0.351938 0.000167653      5.6966 255 255 255
 0.409704 -0.533623   5.96472 255 255 255
 -1.3014 -1.03671  5.90463 255 255 255
-1.25961 0.204225  5.77125 255 255 255
0.349608 0.397807  5.63239 255 255 255
0.0864073  0.342782   5.48882 255 255 255
 -1.43107 -0.653042   5.80338 255 255 255
   -1.30927 -0.00101926     5.71857 255 255 255
 -1.09474 -0.845923   5.92189 255 255 255
0.186764 0.385122   5.5387 255 255 255
-1.36329 0.197846  5.67717 255 255 255
-1.39239 0.213855  5.66641 255 255 255
0.347186 0.403631  5.62616 255 255 255
 -1.60422 -0.982931    5.8305 255 255 255
  -1.33871 0.00113343    5.70867 255 255 255
 0.333279 -0.548034   5.87627 255 255 255
-1.61102 -1.11227  5.84756 255 255 255
 0.335923 -0.543891   5.86447 255 255 255
0.0979504  0.204151   5.51073 255 255 255
-1.26045 0.233609  5.74956 255 255 255
-1.43617 -1.04955  5.87638 255 255 255
-0.199992  0.326811   5.45244 255 255 255
  -1.2669 0.0345595   5.76724 255 255 255
0.041829 0.361003  5.41224 255 255 255
-1.27492 0.241579  5.71759 255 255 255
 -1.28544 0.0317017   5.71948 255 255 255
-0.201756  0.336625   5.44953 255 255 255
 0.355908 -0.212148   5.71282 255 255 255
0.0364526  0.364692   5.39709 255 255 255
-0.234911  0.167197   5.47347 255 255 255
0.0740445  0.212507   5.44991 255 255 255
  0.35888 -0.436967   5.76418 255 255 255
 -1.34479 -0.597899   5.82282 255 255 255
0.360147 0.436154  5.58087 255 255 255
 -1.30101 -0.587548    5.8322 255 255 255
 -1.38596 -0.907612   5.86238 255 255 255
-1.33745 0.258597  5.66517 255 255 255
 -1.33278 -0.891754   5.87332 255 255 255
 -1.54323 -0.939089    5.8315 255 255 255
 -1.28201 0.0755911   5.72017 255 255 255
0.152075 -0.23855  5.65273 255 255 255
 -1.2308 0.303835   5.7748 255 255 255
-1.26546 0.299422   5.7402 255 255 255
-1.25801 0.304654  5.75233 255 255 255
 -1.21322 -0.534359   5.83085 255 255 255
 0.357679 -0.181691    5.6983 255 255 255
0.0269147  0.410803   5.38358 255 255 255
0.348249  0.31731  5.65629 255 255 255
 -1.53269 -0.601879   5.77449 255 255 255
0.0799226  0.435292   5.50136 255 255 255
 0.333954 -0.419423   5.83488 255 255 255
0.131386 0.451591  5.50385 255 255 255
0.355842 0.491454  5.59316 255 255 255
-1.28131 0.112519  5.71018 255 255 255
0.0827908  0.454654   5.47412 255 255 255
-1.26253 0.355453  5.72882 255 255 255
-1.27966 0.349114  5.68246 255 255 255
 -1.33901 -0.531413   5.80715 255 255 255
0.346394 0.511077  5.62886 255 255 255
 -1.24574 -0.503504   5.81759 255 255 255
 0.346111 -0.407889   5.77553 255 255 255
-1.48357  0.12059  5.65515 255 255 255
  -1.3698 -0.525703   5.80152 255 255 255
 -1.24626 -0.496652   5.82382 255 255 255
0.0335861 -0.230713    5.5078 255 255 255
0.329559 0.367434  5.72099 255 255 255
 -1.13938 -0.796917   5.90966 255 255 255
 -1.36142 -0.855758   5.86365 255 255 255
0.0856737  0.476047   5.44183 255 255 255
 0.327749 -0.404503    5.8576 255 255 255
-1.26375  0.17349  5.76174 255 255 255
 -1.24974 -0.489192   5.81216 255 255 255
 0.323798 -0.402381   5.92423 255 255 255
0.0852946  0.316107   5.48387 255 255 255
 -1.18375 -0.797684   5.89689 255 255 255
-0.291387 -0.279808   5.54215 255 255 255
0.0858072  0.488375    5.4569 255 255 255
0.0388726  0.321781   5.45856 255 255 255
-0.351484  0.445418   5.39157 255 255 255
0.0125708  0.481757   5.37749 255 255 255
0.0744275  0.494483   5.42839 255 255 255
 -1.46894 -0.858785   5.84055 255 255 255
-0.00356047   -0.207996     5.49043 255 255 255
 -1.38111 -0.484244   5.78686 255 255 255
-1.30727 0.182578  5.68351 255 255 255
0.0860197  0.337209   5.49991 255 255 255
0.257789 0.538951  5.53414 255 255 255
 -1.29111 -0.450599    5.7871 255 255 255
0.0763202  0.515223   5.43511 255 255 255
-0.304003  0.295689   5.43149 255 255 255
 0.318714 -0.383228   5.71387 255 255 255
0.0646127  0.359145   5.47423 255 255 255
 0.281595 -0.387421   5.70529 255 255 255
 0.325369 -0.367212    5.8728 255 255 255
-1.30338 0.221426  5.68632 255 255 255
0.327979 0.580816  5.68796 255 255 255
 -1.27785 -0.430131   5.80551 255 255 255
 -1.13335 -0.744094   5.89373 255 255 255
0.0689299  0.535239   5.43314 255 255 255
   0.33657 -0.0908568    5.77455 255 255 255
0.352648 0.579014  5.54869 255 255 255
 0.338627 -0.085866   5.76368 255 255 255
  -1.5572 -0.480445   5.74843 255 255 255
 0.314406 -0.369059   5.71058 255 255 255
0.0751811  0.394524   5.52541 255 255 255
 0.321436 -0.356662   5.91152 255 255 255
 -1.57503 -0.472105   5.73967 255 255 255
 -1.19823 -0.740255   5.88056 255 255 255
 -1.23794 -0.363853    5.8179 255 255 255
-0.186802 -0.470457   5.59892 255 255 255
-1.25352 0.363576  5.75686 255 255 255
 -1.35892 -0.753954   5.84399 255 255 255
  0.353646 -0.0378691    5.69871 255 255 255
 0.165547 -0.376993   5.67381 255 255 255
-1.25708 0.389057    5.739 255 255 255
  0.17919 -0.363709   5.67576 255 255 255
 0.318674 -0.312704   5.89842 255 255 255
-1.24423 0.404348  5.73107 255 255 255
0.323346 -0.30977  5.86688 255 255 255
-0.208152  -0.45196   5.59484 255 255 255
  -1.2907 -0.706894   5.85089 255 255 255
 0.335987 -0.302636   5.81885 255 255 255
0.354928 0.559993  5.57289 255 255 255
0.0810438  0.524092   5.45557 255 255 255
 -1.35523 -0.697419   5.83686 255 255 255
0.362006 0.566276  5.55608 255 255 255
 0.316867 -0.263349   5.88731 255 255 255
0.0588284  0.546939   5.43523 255 255 255
-0.191721 -0.389916   5.58335 255 255 255
0.359359 0.604936  5.55927 255 255 255
0.0581366 -0.322008   5.54303 255 255 255
0.341985 0.634319  5.62886 255 255 255
 0.323091 -0.217674   5.85883 255 255 255
-0.298314  0.580489   5.38199 255 255 255
  0.37607 -0.186627   5.89466 255 255 255
0.320862 0.671457  5.70302 255 255 255
 0.338959 -0.194536   5.77935 255 255 255
-1.15898 0.570777   5.6586 255 255 255
 0.335477 -0.180816   5.88493 255 255 255
-0.25794 0.606956  5.38717 255 255 255
 -1.47402 -0.589103   5.78615 255 255 255
-1.22406 0.573553  5.63597 255 255 255
-0.155112  0.619374   5.40997 255 255 255
 -1.15796 -0.498746   5.84399 255 255 255
 -1.14974 -0.495299   5.85236 255 255 255
 -1.52585 -0.583119   5.77622 255 255 255
 -1.22906 -0.511849   5.82894 255 255 255
0.105131 -0.22274  5.58228 255 255 255
0.368544 0.726118   5.7254 255 255 255
0.377658 0.727035  5.72973 255 255 255
-1.11342 0.624015  5.65773 255 255 255
0.337064 0.724722  5.62918 255 255 255
 0.206825 -0.140276   5.64275 255 255 255
 0.322177 -0.341678   5.90833 255 255 255
-1.31803  0.28543  5.67791 255 255 255
  -0.3429 -0.798607   5.61418 255 255 255
-0.229747 -0.795625   5.63994 255 255 255
 0.278329 -0.353369   5.70187 255 255 255
 -1.24342 -0.317277   5.86108 255 255 255
 0.334573 -0.611148   5.75013 255 255 255
0.0353336 -0.417097   5.58629 255 255 255
 0.399165 -0.584098    5.9678 255 255 255
-1.26363 0.186196  5.76607 255 255 255
 -1.30904 -0.408481   5.78177 255 255 255
-1.24915 0.336493  5.75221 255 255 255
    0.36311 -0.00632341     5.65849 255 255 255
  0.331481 -0.0632159    5.79469 255 255 255
0.00481168    0.42525    5.38208 255 255 255
-1.52291 -0.36776  5.73519 255 255 255
 -1.3917 -1.10968   5.8986 255 255 255
0.347846 0.491254  5.62744 255 255 255
0.0515216 -0.396436   5.64069 255 255 255
-1.30194 0.195878  5.68923 255 255 255
  0.336767 -0.0505584    5.77029 255 255 255
  0.336697 0.00385304    5.76035 255 255 255
 -1.23886 -0.696015   5.85874 255 255 255
0.333219 0.510392  5.69263 255 255 255
  0.358279 0.00559181    5.66978 255 255 255
   0.35715 -0.0410454    5.68419 255 255 255
0.0675267 -0.373603   5.61738 255 255 255
-0.296822  0.309686   5.42972 255 255 255
-1.50113 -1.10243  5.86993 255 255 255
 0.329278 0.0144339   5.78665 255 255 255
 0.111519 -0.201989   5.60456 255 255 255
 -1.47751 -0.319345   5.73452 255 255 255
-1.26848  0.24136  5.73149 255 255 255
  0.319326 -0.0147631     5.8329 255 255 255
0.344391  0.42498  5.58047 255 255 255
 -1.33008 -0.992452     5.893 255 255 255
0.0759822 -0.346142   5.60011 255 255 255
 -1.48969 -0.354534   5.74451 255 255 255
  -1.2551 -0.647565   5.84672 255 255 255
-0.210829  0.356566   5.44614 255 255 255
0.0597591  0.389027   5.44742 255 255 255
0.362586 0.445004  5.58086 255 255 255
-1.29177 0.270321  5.67265 255 255 255
-1.31773  0.27098  5.66709 255 255 255
 -1.21532 -0.426565   5.81786 255 255 255
0.0286154 -0.588758   5.67471 255 255 255
-1.45392 -0.26622  5.73169 255 255 255
-1.24298 0.283837  5.70706 255 255 255
 0.173131 -0.292068   5.66114 255 255 255
0.0241255  0.528084   5.38661 255 255 255
-1.24972 0.291285   5.7453 255 255 255
0.0844866 -0.315141   5.59176 255 255 255
 -1.16972 -0.962053   5.92494 255 255 255
-0.307067  0.358848   5.41944 255 255 255
 -1.12103 -0.583443   5.87182 255 255 255
 0.338282 0.0776091   5.73997 255 255 255
-1.28063 0.281517  5.68206 255 255 255
-0.310482 -0.678547   5.61643 255 255 255
 -1.22239 -0.380419   5.81907 255 255 255
0.0260217  0.395567   5.38853 255 255 255
0.0784353 -0.314589    5.5498 255 255 255
0.349707 0.587316  5.60592 255 255 255
-1.28764 -0.26068   5.7766 255 255 255
-0.192481  0.386271   5.44641 255 255 255
 0.335954 0.0877749   5.74826 255 255 255
 0.119681 0.0553204   5.53607 255 255 255
 0.357134 -0.227367   5.70115 255 255 255
-1.54087 -1.02674  5.86044 255 255 255
 -1.25156 -0.154588   5.84262 255 255 255
0.00314534  -0.314174    5.52873 255 255 255
0.352527   -0.461  5.73181 255 255 255
 0.110829 -0.269819   5.62488 255 255 255
 -1.31819 -0.171745   5.75173 255 255 255
 -1.21392 -0.912521   5.90592 255 255 255
 -1.24251 -0.135403   5.83546 255 255 255
 -1.24098 -0.173042   5.83192 255 255 255
 0.334024 -0.471871   5.84112 255 255 255
 -1.39252 -0.192367   5.74981 255 255 255
 -1.54409 -0.595186   5.77011 255 255 255
  -1.1601 -0.869243   5.91057 255 255 255
  -1.3725 -0.926128   5.87055 255 255 255
 0.327395 -0.454787   5.93334 255 255 255
  -1.26036 -0.0734266    5.81562 255 255 255
0.121547 0.501629  5.50219 255 255 255
 0.32645 0.546528  5.70608 255 255 255
0.0509398  0.110036   5.45722 255 255 255
  -1.26273 -0.0614394     5.8019 255 255 255
 -1.28472 -0.112519   5.76984 255 255 255
 -1.35543 -0.910303   5.87262 255 255 255
  -1.4072 -0.921808   5.86275 255 255 255
  0.100984 -0.0145461    5.48509 255 255 255
0.352202 0.569138  5.54965 255 255 255
 -1.49623 -0.939143    5.8426 255 255 255
 0.243178 -0.159994   5.65716 255 255 255
0.0938863  0.140265   5.53167 255 255 255
 0.328229 -0.417107   5.92995 255 255 255
0.239798 0.169335  5.58848 255 255 255
 -1.50703 -0.906728   5.83983 255 255 255
 0.319003 -0.127419   5.86076 255 255 255
 -1.32531 -0.874464   5.87358 255 255 255
 0.322691 -0.402944    5.8762 255 255 255
0.330695  0.60985  5.67424 255 255 255
 -1.53126 -0.926528   5.83492 255 255 255
  -1.37317 -0.0758586    5.72248 255 255 255
 0.329089 -0.403018   5.73717 255 255 255
  -1.46656 -0.0495578    5.69011 255 255 255
 -1.45846 -0.490005   5.77436 255 255 255
 0.339654 -0.105641   5.76524 255 255 255
 0.328541 -0.102188    5.8637 255 255 255
  -1.37514 0.00873502     5.7063 255 255 255
   -1.377 -0.875739   5.85311 255 255 255
-0.0080354   0.130691    5.44163 255 255 255
-1.26225 0.525668  5.68676 255 255 255
 0.209289 -0.454428   5.70142 255 255 255
 -1.38665 -0.431165   5.77994 255 255 255
0.0916444  0.174461   5.53541 255 255 255
 -1.20069 -0.804732   5.89278 255 255 255
  -1.4098 -0.389916   5.76677 255 255 255
  0.32115 -0.575854   5.74123 255 255 255
 -1.24573 -0.354814   5.81096 255 255 255
 -1.25421 -0.353312   5.79861 255 255 255
-1.19183 0.615473  5.65116 255 255 255
  -1.2973 -0.105396   5.74412 255 255 255
 -1.26118 0.0231625   5.78193 255 255 255
  0.350972 -0.0361985    5.65896 255 255 255
 -1.47193 -0.765545   5.81883 255 255 255
-1.20752 -1.08697  5.93597 255 255 255
-0.159169 -0.513847   5.61525 255 255 255
 0.352394 -0.310907   5.71068 255 255 255
0.338419 0.180636  5.69025 255 255 255
  -1.2842 0.0269327   5.73352 255 255 255
 0.318877 -0.363668   5.90244 255 255 255
 -1.33766 0.0363592   5.70512 255 255 255
 0.230383 -0.333006   5.68425 255 255 255
    -1.50569 -0.000561482       5.6746 255 255 255
  -1.52022 -0.0877481    5.68785 255 255 255
 -1.25433 0.0588004   5.79063 255 255 255
-0.0496298   0.143399    5.44698 255 255 255
0.351629 0.274752   5.6455 255 255 255
 -1.32205 0.0533393   5.70852 255 255 255
0.348752 0.296031  5.65107 255 255 255
  -1.3233 0.0195611   5.71125 255 255 255
-1.36131 0.069836  5.69538 255 255 255
-0.314236  0.192138   5.45843 255 255 255
 -1.26142 0.0627677   5.77277 255 255 255
 -1.28822 0.0976025   5.70481 255 255 255
 -1.49912 0.0275275   5.66964 255 255 255
-0.0107345   0.222841    5.42311 255 255 255
-1.29322 0.118833  5.70107 255 255 255
-1.27589   0.1209  5.73014 255 255 255
-1.45968 0.118202   5.6613 255 255 255
 -1.31949 0.0825517   5.69777 255 255 255
-0.330727  -0.64131   5.59671 255 255 255
-0.33702 -0.64322  5.59937 255 255 255
0.0835592  0.306881   5.54753 255 255 255
-1.38167 0.142946  5.68466 255 255 255
-1.28711 0.164572   5.7048 255 255 255
 0.344744 -0.433419   5.76146 255 255 255
0.0354723  0.310336    5.4559 255 255 255
-1.50373 0.138301  5.65019 255 255 255
 0.110263 -0.266042   5.58869 255 255 255
0.320782 0.425882  5.74696 255 255 255
 0.34075 0.432715  5.66268 255 255 255
 0.103543 -0.220716   5.62268 255 255 255
-1.27655 0.258523  5.70083 255 255 255
0.0235585 -0.493059   5.66051 255 255 255
 0.32385 -0.15406  5.87446 255 255 255
0.323447 0.468419  5.76201 255 255 255
-0.233397  0.360249   5.45026 255 255 255
-1.37829  -0.8458  5.85819 255 255 255
 -1.28317 -0.447743   5.79291 255 255 255
 -1.39189 -0.803573   5.84153 255 255 255
0.359428 0.489976  5.55875 255 255 255
0.0194064  0.457293   5.38437 255 255 255
 0.397843 -0.293538   5.92168 255 255 255
0.351192 0.535058  5.56428 255 255 255
0.265871 0.531021  5.53571 255 255 255
 0.315679 -0.233538   5.87669 255 255 255
  0.328996 -0.0257354    5.79335 255 255 255
 0.35932 0.318432  5.60677 255 255 255
0.324494  0.30069  5.74925 255 255 255
 0.396572 -0.556341   5.96016 255 255 255
0.329963 0.358065   5.7727 255 255 255
  -1.2802 -0.238403   5.78604 255 255 255
-0.209932 -0.741451   5.63436 255 255 255
-1.42515 -1.07449  5.88868 255 255 255
 0.108882 -0.299746   5.64224 255 255 255
-1.30172 -1.00284  5.89853 255 255 255
0.0731128  0.337515   5.51536 255 255 255
-1.39422 -1.00842  5.87827 255 255 255
0.332128 0.475987  5.64143 255 255 255
 0.313613 -0.513322   5.93167 255 255 255
0.348302 -0.21583  5.74018 255 255 255
0.209209 -0.25201  5.66991 255 255 255
 0.103154 0.0877853   5.53479 255 255 255
 0.330468 -0.193505   5.88268 255 255 255
-0.278576  0.482423   5.40295 255 255 255
 0.34187 0.556615  5.54889 255 255 255
 -1.30212 -0.546194   5.80904 255 255 255
0.339822 0.187938  5.71007 255 255 255
  -1.6103 -0.967383   5.82826 255 255 255
-0.168303 -0.563544   5.62539 255 255 255
 0.268649 -0.165001   5.66331 255 255 255
 -1.47182 -0.504388   5.77205 255 255 255
-0.0331276   0.618249    5.43828 255 255 255
0.107522 -0.18509  5.61404 255 255 255
  -1.4521 -0.464259   5.76391 255 255 255
-0.221462 -0.211302   5.54648 255 255 255
  0.341003 -0.0539194    5.74036 255 255 255
0.0332183  0.561084   5.44925 255 255 255
-0.226863 -0.174842   5.52241 255 255 255
0.0204078 -0.197574   5.50438 255 255 255
-1.28539 0.508855   5.6472 255 255 255
 0.0805002 0.00728529    5.49595 255 255 255
0.317325 0.663202  5.52671 255 255 255
 -1.24944 -0.765735   5.87278 255 255 255
0.0876047  0.182662   5.53565 255 255 255
-1.33672 -1.07011  5.89864 255 255 255
 -1.23843 -0.421168   5.80653 255 255 255
0.0998224 -0.277174   5.55285 255 255 255
0.0684129 -0.352026   5.58188 255 255 255
 -1.28795 -0.341827   5.78848 255 255 255
0.0726451 0.0836286   5.49083 255 255 255
0.063032 -0.35941  5.58685 255 255 255
  -1.9863 -0.484395   5.56228 255 255 255
 -1.62516 -0.233371   5.68805 255 255 255
0.0224784 0.0271191   5.47254 255 255 255
-1.39363 0.428837  5.62153 255 255 255
-1.99214 0.173143  5.43402 255 255 255
0.341821 0.117448  5.71124 255 255 255
-1.74777 0.223449   5.5754 255 255 255
 0.322173 -0.617257   5.93831 255 255 255
0.0544837 -0.357289   5.56448 255 255 255
 0.122754 0.0600033   5.56995 255 255 255
 -1.80071 -0.538753   5.69983 255 255 255
 0.332825 -0.618544   5.89122 255 255 255
0.354082 0.114028  5.66399 255 255 255
-1.95335 0.194264  5.52876 255 255 255
 0.359653 -0.264166   5.70812 255 255 255
-1.50644 0.263278    5.625 255 255 255
0.331811 0.132521  5.81802 255 255 255
-1.54108 0.416426  5.59043 255 255 255
  0.346461 0.00331949    5.72039 255 255 255
-2.00846 0.173528  5.41154 255 255 255
 -1.95474 -0.575695   5.65342 255 255 255
-1.99207 0.181877  5.45006 255 255 255
-1.97863  0.18615  5.47134 255 255 255
 -1.82397 -0.427615   5.68004 255 255 255
 0.354974 -0.258808    5.7306 255 255 255
-1.60591 0.249871  5.60402 255 255 255
0.0611228  0.545245   5.46704 255 255 255
0.344199 0.120012  5.69943 255 255 255
 0.181881 -0.124204   5.63213 255 255 255
 0.33974 0.122556  5.72241 255 255 255
 -1.94817 -0.294207   5.62029 255 255 255
-0.280667  0.503273   5.39966 255 255 255
-1.97255 0.190621  5.48736 255 255 255
-1.45374 -1.15916  5.89238 255 255 255
-1.93599 0.203473  5.53731 255 255 255
 0.331798 -0.611425     5.897 255 255 255
0.335808 0.136931  5.82044 255 255 255
 -1.35239 -0.325446   5.73523 255 255 255
0.0659628  0.545475   5.45674 255 255 255
 0.119532 0.0624188   5.56097 255 255 255
 -1.55768 -0.472782   5.74823 255 255 255
-1.63626 0.248293  5.59669 255 255 255
-1.50249 0.267946  5.62434 255 255 255
-1.91729 0.375026  5.51396 255 255 255
 -2.02615 -0.601558   5.51104 255 255 255
 0.335477 0.0104144   5.76041 255 255 255
 0.350802 -0.613473   5.80083 255 255 255
-1.45337 0.433403  5.60754 255 255 255
-1.40464 -1.13745  5.90038 255 255 255
0.343097 0.479302  5.64368 255 255 255
0.320373 0.616134   5.7333 255 255 255
0.00911264  0.0317274    5.46894 255 255 255
0.0463233   0.53886   5.41103 255 255 255
-1.96951 0.197374  5.49646 255 255 255
0.336743 0.127083  5.73985 255 255 255
0.0928403 -0.702125    5.6852 255 255 255
 -1.93088 -0.444976   5.64882 255 255 255
-1.93626 0.375705   5.5119 255 255 255
-1.52671 0.268878  5.62033 255 255 255
 0.333776 -0.606773    5.8827 255 255 255
-1.90994 0.378998  5.51742 255 255 255
 -1.67232 -0.387823   5.70196 255 255 255
0.335875 0.485652  5.67451 255 255 255
 0.360403 -0.254066   5.70297 255 255 255
 -1.56873 -0.209894   5.69968 255 255 255
-1.83018 0.388236   5.5289 255 255 255
 0.328974 -0.245191   5.83183 255 255 255
 0.332919 -0.606115   5.89023 255 255 255
-1.71704 -0.50705   5.7149 255 255 255
0.357179 0.121191  5.65078 255 255 255
 0.056692 -0.344179   5.56589 255 255 255
-1.98161 0.187641  5.42712 255 255 255
 -1.97571 -0.821759   5.66284 255 255 255
0.326631  0.61096  5.69222 255 255 255
 -1.47459 -0.682439   5.80365 255 255 255
-1.28967 -1.09603  5.91945 255 255 255
   0.36015 0.00774844    5.66375 255 255 255
 -1.79494 -0.254163   5.65636 255 255 255
-1.82173 0.227529  5.55952 255 255 255
 -1.59995 -0.713959   5.77861 255 255 255
-1.86518  0.38496  5.52299 255 255 255
-0.0770103  -0.753561    5.67379 255 255 255
-1.58635 0.261135  5.60622 255 255 255
 -1.96628 -0.813894   5.68152 255 255 255
 -1.75782 -0.245829    5.6635 255 255 255
 0.150973 -0.679111   5.71963 255 255 255
-1.95523 0.203119  5.49956 255 255 255
-1.39162 0.444736  5.61848 255 255 255
 -1.94618 -0.552587   5.66933 255 255 255
 -1.97339 -0.294913   5.56449 255 255 255
-1.58872 0.422046  5.57692 255 255 255
-1.96177 0.204738  5.50454 255 255 255
-1.48214 0.279172     5.63 255 255 255
 0.340858 -0.254915   5.69805 255 255 255
 -1.98963 -0.571434   5.58454 255 255 255
0.334439 0.610377  5.65876 255 255 255
 -1.95815 -0.554906   5.65122 255 255 255
 0.129109 -0.685817   5.71543 255 255 255
 -1.99196 -0.301307   5.53105 255 255 255
 -1.63444 -0.475914   5.72765 255 255 255
0.0497323  0.548943   5.42919 255 255 255
 -1.96059 -0.288356   5.58096 255 255 255
0.0833694  0.424129   5.43083 255 255 255
-1.63203 0.423122  5.57006 255 255 255
-0.262928 -0.214887   5.53645 255 255 255
-1.61609 0.262467  5.59818 255 255 255
 0.333506 -0.602665   5.88239 255 255 255
-1.53006 0.435761  5.58956 255 255 255
 -1.48525 -0.675816   5.79794 255 255 255
 0.123358 0.0737556   5.56138 255 255 255
-1.84419 0.229533  5.54746 255 255 255
 -1.44891 -0.318293    5.7407 255 255 255
-1.52286 -1.16639  5.87667 255 255 255
 -1.87833 -0.776614   5.72443 255 255 255
  0.33143 -0.600665   5.89381 255 255 255
-1.91393 0.391696  5.51232 255 255 255
-1.64182 0.424743   5.5655 255 255 255
 0.360758 -0.652261   5.76604 255 255 255
 0.349956 -0.602904   5.80066 255 255 255
 -1.34871 -0.297763   5.73794 255 255 255
-1.85506  0.23204  5.55238 255 255 255
-1.99317 -0.56298  5.57242 255 255 255
  0.34096 -0.235938   5.78316 255 255 255
 0.337566 0.0292455   5.75026 255 255 255
0.322456 0.143448  5.79362 255 255 255
0.320718 0.502057  5.73495 255 255 255
 0.345946 0.0269889   5.71726 255 255 255
-1.71882 0.252309  5.57538 255 255 255
 -1.97849 -0.556305   5.60182 255 255 255
-1.53571 0.279643  5.61594 255 255 255
 0.339503 -0.599251   5.85627 255 255 255
  -1.7887 -0.749324   5.74078 255 255 255
-1.95976 0.214816  5.50483 255 255 255
  -1.9746 -0.284475   5.56325 255 255 255
-1.89164 0.227909  5.53917 255 255 255
0.342671 0.491686  5.64572 255 255 255
  0.333057 -0.0517657    5.78566 255 255 255
 -1.71841 -0.371976   5.68925 255 255 255
-1.42015 -1.12735   5.8949 255 255 255
 -1.96057 -0.794546   5.69849 255 255 255
-1.97552  0.20997  5.47839 255 255 255
 -1.8426 -0.25063  5.63643 255 255 255
-1.51269  0.28567  5.62033 255 255 255
 -1.53396 -0.187743   5.70018 255 255 255
0.131977 0.447687   5.5041 255 255 255
-2.00275  0.20167  5.43093 255 255 255
-1.94598 0.223645  5.53207 255 255 255
0.322559  0.14695  5.79454 255 255 255
 0.352841 -0.599243   5.79248 255 255 255
  0.330911 -0.0463549    5.79291 255 255 255
-1.85699 0.237198  5.55303 255 255 255
 0.331472 -0.595574   5.88258 255 255 255
