ply
format ascii 1.0
element vertex 1205
property float x
property float y
property float z
property uchar red
property uchar green
property uchar blue
end_header
 2.0751 2.16872 3.96508 255 255 255
-1.87793 -1.62524  5.82949 255 255 255
-1.67687 -2.50526  6.06293 255 255 255
 1.92764 0.909792  4.43207 255 255 255
 -4.12368 -0.521878   5.84088 255 255 255
 2.19952 -1.28556  5.18441 255 255 255
0.568797  1.22993  5.34109 255 255 255
-1.32041 0.913427  5.08659 255 255 255
 -2.88529 -0.377396   5.64679 255 255 255
1.89264 2.21176  3.9871 255 255 255
-1.33622 0.567796  5.27625 255 255 255
-0.291288   1.24811   5.49499 255 255 255
2.30225 2.17191 4.00078 255 255 255
0.298191  1.23752  5.39084 255 255 255
0.174748 0.687094  5.45695 255 255 255
-0.193669   1.25057   5.47573 255 255 255
0.693331 -1.00452  5.19252 255 255 255
 2.23075 0.192503  4.55117 255 255 255
-1.45431 -2.50216  6.39877 255 255 255
0.503063  1.23757  5.35405 255 255 255
  1.32486 -0.882281   5.23825 255 255 255
 -3.10769 -0.400784   5.65305 255 255 255
-2.01024 0.901121  5.14532 255 255 255
2.19353 2.16328 3.93865 255 255 255
   1.9559 -0.710204   4.88352 255 255 255
 1.6275 2.17129 3.79667 255 255 255
0.788674 -1.81022  5.94542 255 255 255
-1.96867 -1.63204  5.85043 255 255 255
2.23806 1.05832 4.35016 255 255 255
1.85681 2.21517  3.9459 255 255 255
-2.01987   -2.592  6.15823 255 255 255
  2.13606 -0.663618   4.84866 255 255 255
 -1.20942 -0.174735   5.33219 255 255 255
-1.22656   1.1617  5.13554 255 255 255
-0.820544  -2.32742   6.43638 255 255 255
 1.77973 0.152955  4.68475 255 255 255
-1.0928 1.18489 5.22724 255 255 255
 1.74125 -1.37454    5.122 255 255 255
-2.00734  1.14476  5.09018 255 255 255
-0.544906  0.665456   5.58391 255 255 255
-1.71548 -2.48307   6.0575 255 255 255
 -2.69415 -0.341573   5.57649 255 255 255
0.0344795  -1.91506   5.57214 255 255 255
-1.54577 -1.52758  5.80165 255 255 255
-1.44803 -2.51392   6.5078 255 255 255
-0.00266089    -1.15341     5.37831 255 255 255
2.09244 0.91764 4.41272 255 255 255
 2.35539 0.705407  4.52844 255 255 255
-0.923987   1.21687   5.32541 255 255 255
 -1.11365 -0.156368   5.39365 255 255 255
-0.74137 0.997708  5.37896 255 255 255
1.99664  2.2188 3.95263 255 255 255
 0.388274 0.0330232    5.6144 255 255 255
-1.25597 0.943371  5.17805 255 255 255
 1.86146 0.162746  4.66228 255 255 255
2.28646  2.1704 3.92009 255 255 255
  1.84392 -0.718464   4.90724 255 255 255
-3.80912 -2.06396  6.39694 255 255 255
0.330835 -1.06318  5.28964 255 255 255
-4.03464 0.489746  5.73622 255 255 255
 -1.48936 -0.198196   5.35823 255 255 255
 2.1431 2.20961 3.93735 255 255 255
 1.73864 0.155212  4.68425 255 255 255
-1.15935 0.959367  5.18785 255 255 255
1.40729 0.66308 4.59453 255 255 255
 2.16896 -1.22764  5.00571 255 255 255
 1.66311 0.675976  4.55644 255 255 255
 1.51884 0.131936  4.73548 255 255 255
-1.81451  1.15452  5.06259 255 255 255
  2.13561 -0.643684   4.83954 255 255 255
 -3.28395 -0.390567   5.67788 255 255 255
2.17272 2.21516 3.92684 255 255 255
-1.21508  1.18005  5.12888 255 255 255
2.32567 2.18426 3.90638 255 255 255
 1.36413 0.663585   4.6051 255 255 255
 0.857812 -0.987197   5.65663 255 255 255
 -2.92285 -0.351049    5.6172 255 255 255
 2.06179 0.192122  4.62192 255 255 255
-3.26072 -0.38574  5.68383 255 255 255
-1.08692  1.20505  5.22802 255 255 255
   -1.636 -0.216923   5.08875 255 255 255
1.78489  2.1347 3.64351 255 255 255
 -1.32149 -0.172104   5.31313 255 255 255
1.88172 1.07975 4.40637 255 255 255
2.03732 2.19003 3.81487 255 255 255
-2.04469  1.16214  5.07708 255 255 255
-1.55052 -1.48842  5.79274 255 255 255
-1.61004 0.576101  5.17614 255 255 255
-0.897485   1.23929   5.34254 255 255 255
0.704656  0.97916   5.3202 255 255 255
-2.18922  1.17683  5.11805 255 255 255
0.416584 0.051423  5.60274 255 255 255
-0.798535  0.677693   5.53911 255 255 255
  2.07755 -0.644722   4.84789 255 255 255
1.61966 1.09074 4.45264 255 255 255
 1.33332 0.938247  4.55452 255 255 255
 0.205344 0.0315861   5.63891 255 255 255
-1.50693  1.16541  5.00339 255 255 255
 -1.5164 -2.38719  6.10395 255 255 255
 1.41288 0.130392  4.75249 255 255 255
 1.62017 0.150572  4.71269 255 255 255
1.31273  1.1015 4.51231 255 255 255
-1.42539  1.16309  4.99069 255 255 255
-4.12545 -4.80745  6.55089 255 255 255
-0.0172827   0.019262     5.6934 255 255 255
-0.447432  0.710898   5.55932 255 255 255
 2.39855 -1.23385  5.46241 255 255 255
1.45483 1.10281 4.48063 255 255 255
-1.63054 0.961341  5.08331 255 255 255
 2.32313 0.708658  4.35036 255 255 255
-1.34189 0.972352  5.09343 255 255 255
-1.84214  1.18409  5.05708 255 255 255
-0.667093  0.704634   5.58229 255 255 255
 2.04771 -1.22398  5.01621 255 255 255
  1.67985 -0.709262   4.93639 255 255 255
-1.50112 -2.37003  6.13998 255 255 255
2.20773 1.09252 4.34514 255 255 255
  -3.2765 -0.345783   5.71023 255 255 255
 2.02033 -1.22919  5.02648 255 255 255
-0.602016   1.30512   5.50385 255 255 255
 -4.1051 -4.87452  6.91862 255 255 255
-1.83231 0.963008  5.11511 255 255 255
0.239043 0.739722   5.4207 255 255 255
 2.36898 -1.22831  5.46673 255 255 255
 -1.21715 -0.117693   5.31838 255 255 255
-1.02587 -2.29322  6.40653 255 255 255
-1.79196 -1.47976  5.76319 255 255 255
 -0.667538 -0.0391943    5.57824 255 255 255
 0.859584 -0.875264   5.11446 255 255 255
0.207859  1.11179  5.56179 255 255 255
-3.63176 0.605251  6.05025 255 255 255
2.08626 1.10083 4.36274 255 255 255
 0.24481 -1.89352  6.07539 255 255 255
-4.14423 -1.98506  6.07508 255 255 255
-0.0642563   0.732083    5.49263 255 255 255
-0.0797643    1.09565    5.50036 255 255 255
 -4.0993 -1.98745  6.28654 255 255 255
 1.42031 -1.44425   5.3798 255 255 255
1.82152 1.11095 4.40792 255 255 255
 0.484743 -0.935315   5.21051 255 255 255
 2.21277 0.239778  4.54445 255 255 255
-1.52111 0.968683  5.05565 255 255 255
 1.98866 -1.22894  5.03303 255 255 255
 -3.25761 -0.315039   5.77224 255 255 255
 1.61854 0.961279  4.49126 255 255 255
0.263521 0.744393  5.42638 255 255 255
  2.41191 -0.510238   4.74155 255 255 255
0.364365 -1.84223  5.99305 255 255 255
0.922236 0.130741  5.18754 255 255 255
  2.48757 -0.489316   4.72032 255 255 255
 2.19248 -1.19762  5.15136 255 255 255
1.71985 1.11653 4.41563 255 255 255
 2.23127 -1.22979  5.36282 255 255 255
 -0.632517 -0.0214154    5.62697 255 255 255
  2.47298 -0.489026   4.71817 255 255 255
 2.33013 -1.22944  5.47314 255 255 255
 0.129435 -0.996604   5.32356 255 255 255
0.159022 -1.89961  6.09675 255 255 255
-1.43368 -2.38226  6.44493 255 255 255
0.11176 1.32218 5.39828 255 255 255
 -0.712973 -0.0311864    5.52856 255 255 255
-0.00857185     1.11296      5.4761 255 255 255
-4.08596 -1.93632    6.265 255 255 255
-1.71747 0.987745  5.07839 255 255 255
-1.41219 -2.37256  6.44905 255 255 255
0.509903 0.107205  5.55425 255 255 255
-1.84019  1.22535  5.04454 255 255 255
-0.503352   1.34469   5.51005 255 255 255
 -0.844524 -0.0420345    5.51322 255 255 255
0.705389  1.28973  5.19936 255 255 255
 -1.64765 -0.151703   5.17701 255 255 255
1.50468 1.13304 4.46518 255 255 255
 1.31103 0.161408  4.77564 255 255 255
 2.29438 0.718986  4.34391 255 255 255
   2.5246 -0.467477   4.71467 255 255 255
 -3.29079 -0.306375   5.76503 255 255 255
 -0.870281 -0.0402976    5.51946 255 255 255
 1.93998 -1.22239  5.03521 255 255 255
-0.0318347    1.33574    5.42946 255 255 255
 1.62575 0.972819  4.48417 255 255 255
 -3.31249 -0.304587   5.69677 255 255 255
-2.19282  1.24324  5.10023 255 255 255
 -3.28853 -0.299954   5.73309 255 255 255
 -3.22706 -0.288937   5.79654 255 255 255
  2.10989 -0.541166   4.77189 255 255 255
 1.43836 -1.40482  5.36702 255 255 255
  -0.611102 0.000169896     5.62857 255 255 255
0.659654 -1.70875  5.91894 255 255 255
 2.15191 0.972493  4.37168 255 255 255
 -2.15313 -0.180404   5.45276 255 255 255
-0.140836   1.34558   5.43776 255 255 255
-3.74768  1.08862  5.76852 255 255 255
  1.02625 -0.818493    5.5795 255 255 255
 2.08923 0.978399  4.39508 255 255 255
0.486244  1.32764  5.33245 255 255 255
2.04736 -1.1679 5.00123 255 255 255
-4.09763 -1.89153  6.25824 255 255 255
0.601603 0.774669  5.35382 255 255 255
-0.581708 0.0127591   5.65451 255 255 255
-3.96339 -3.07232  6.76238 255 255 255
 2.29875 0.273787  4.57678 255 255 255
0.506901   1.3267  5.32673 255 255 255
 -3.5411 -1.78558  6.29985 255 255 255
 -4.12365 -0.375162   5.80139 255 255 255
0.544502  1.32474  5.32015 255 255 255
-4.16783 -3.01942  6.31044 255 255 255
-0.553453   1.13436   5.57402 255 255 255
-4.08365 -4.73272  6.97831 255 255 255
 1.98923 0.979097  4.41225 255 255 255
  1.70865 -0.622113   4.90089 255 255 255
 1.38232 0.181701  4.73221 255 255 255
-0.298773  -1.04614   5.36954 255 255 255
-1.68122  1.23681  5.01946 255 255 255
0.0633226  -1.75945   5.52175 255 255 255
-3.82021 -1.83707  6.38867 255 255 255
-4.04626 0.571099  5.66685 255 255 255
 1.84075 0.229664  4.65436 255 255 255
 0.279855 -0.921758   5.26664 255 255 255
-1.47066  1.23363  4.98778 255 255 255
-0.173891 0.0720472   5.69851 255 255 255
2.09559 1.12971 4.35743 255 255 255
-1.48381 -1.33478  6.15635 255 255 255
 1.84678 0.714413  4.40421 255 255 255
-0.0438588  -0.985804     5.3642 255 255 255
 2.29835 -1.18372   5.4664 255 255 255
 2.11393 0.975511  4.37199 255 255 255
 0.788407 -0.805615   5.12741 255 255 255
 -1.4748 -2.25044  6.06548 255 255 255
 1.79397 0.230089  4.66229 255 255 255
 2.03392 0.723045  4.35286 255 255 255
 2.46016 -1.13204  5.42255 255 255 255
 1.8937 0.24012    4.64 255 255 255
-2.04296  1.25056  5.04967 255 255 255
-1.30783  1.02408  5.10525 255 255 255
-1.92631 -1.38871  5.77559 255 255 255
 2.25578 0.730916   4.3195 255 255 255
 2.21585 -1.15469  5.23831 255 255 255
 1.90022 0.983251  4.43323 255 255 255
  1.9717 0.250839  4.61771 255 255 255
 1.77609 0.982751  4.44198 255 255 255
 -3.28802 -0.260108    5.8038 255 255 255
-3.89238 -2.99527  6.75485 255 255 255
-2.30883  1.26908  5.11138 255 255 255
 0.295898 -0.903522   5.26515 255 255 255
-1.42535 -2.28874  6.38041 255 255 255
-1.42125  -2.2966  6.42992 255 255 255
0.103105   1.3507  5.38871 255 255 255
 0.162734 -0.929233   5.31091 255 255 255
-0.832789   1.10585   5.43439 255 255 255
 0.984318 -0.796861   5.58875 255 255 255
 -3.33633 -0.263376   5.78052 255 255 255
-3.73888 -4.69117  7.35044 255 255 255
-1.16901  1.28504  5.14512 255 255 255
-0.75887  1.11622  5.45407 255 255 255
-0.189252   1.36105   5.43745 255 255 255
-0.146089   1.35905   5.43114 255 255 255
-1.72237 -2.27037  5.96779 255 255 255
0.421215  1.34446  5.33509 255 255 255
-1.51417 -2.23509   6.0775 255 255 255
  1.97465 -0.535627   4.78385 255 255 255
-0.626241 0.0287976   5.61827 255 255 255
0.506277  1.34043  5.31644 255 255 255
  -1.62486 -0.0955355    5.27087 255 255 255
  -1.44173 -0.0751844    5.32472 255 255 255
0.580789  1.33741  5.30323 255 255 255
  2.10398 -0.510755   4.79906 255 255 255
-0.189184   1.15124   5.49817 255 255 255
 -2.17246 -0.155367   5.26247 255 255 255
 1.91779 0.992246  4.41335 255 255 255
 0.797626 -0.779158   5.10962 255 255 255
 2.15419 -1.09595  4.97159 255 255 255
 1.85616 0.251266   4.6443 255 255 255
-3.80923 -1.78115  6.36012 255 255 255
 2.33582 0.758746  4.34412 255 255 255
 2.06045 0.744443  4.34077 255 255 255
-1.71462 -1.31758  5.71809 255 255 255
-0.899256   1.10479   5.35706 255 255 255
-3.37202  1.36551  5.50263 255 255 255
-0.651926   1.14726   5.49682 255 255 255
-0.0233729  -0.952365    5.38332 255 255 255
 1.67188 -1.22059  5.08257 255 255 255
-0.890505   1.33565   5.33425 255 255 255
-3.58979 -4.61983  7.36914 255 255 255
2.16504 -1.0773 4.95792 255 255 255
-3.34764  1.37605  5.54084 255 255 255
 2.36624 -1.12251  5.44478 255 255 255
  -1.20695 -0.0364882    5.35186 255 255 255
-3.27166   1.3972  5.60083 255 255 255
-4.13762 -1.81595  6.15663 255 255 255
 2.04235 -1.10887  4.98249 255 255 255
   1.703 0.242029  4.67349 255 255 255
-1.44129  1.26213  4.97716 255 255 255
0.0890988 -0.927607   5.38545 255 255 255
0.0935598  -1.68267   5.49648 255 255 255
 -3.35166 -0.241411   5.79718 255 255 255
 2.22633 0.293611  4.54884 255 255 255
-3.94904 -1.78163  6.35682 255 255 255
-0.994598   1.33895   5.26009 255 255 255
0.0020611  -1.70358   5.51041 255 255 255
 2.33762 0.310585  4.62408 255 255 255
-1.63443  1.28022  4.99825 255 255 255
 1.97566 -1.12048  5.00256 255 255 255
-3.59518  1.15779  5.82233 255 255 255
  1.98665 -0.511103   4.81309 255 255 255
-0.26098  1.39488   5.4373 255 255 255
-4.08096 -4.57655  6.91732 255 255 255
 1.38098 -1.32834  5.35655 255 255 255
-2.13089  1.04835  5.14158 255 255 255
 -1.62445 -0.078674   5.27304 255 255 255
 -3.9072 -2.89842  6.69738 255 255 255
  -4.135 -2.91041  6.45863 255 255 255
-0.530861   1.40923   5.49707 255 255 255
0.0503122  0.128525    5.6497 255 255 255
   2.0952 -0.487827   4.79369 255 255 255
-1.91728 -2.26775  6.02882 255 255 255
-1.26575  1.06982  5.13214 255 255 255
-1.41567  1.29328  4.96777 255 255 255
  1.8584 0.768151  4.36962 255 255 255
-2.70567 -1.49671  6.08684 255 255 255
2.01347  1.1689 4.35708 255 255 255
-1.50588 -1.24957  5.94875 255 255 255
-0.511794   1.42287   5.48607 255 255 255
0.0611963 -0.901129   5.40193 255 255 255
0.393952 0.169856  5.54661 255 255 255
 -1.5193 -2.16012  6.05522 255 255 255
-0.138219   1.63355   6.36208 255 255 255
 -3.23227 -0.201226   5.84939 255 255 255
-1.50752 -2.16644  6.10402 255 255 255
  1.91825 -0.513326   4.84057 255 255 255
-0.695697 0.0567203   5.61637 255 255 255
-3.69966  1.47366  5.70228 255 255 255
-1.19929  -2.1155  6.24783 255 255 255
   -3.458 -0.232057   5.71584 255 255 255
 2.08128 0.783192  4.35099 255 255 255
-1.27756  1.32489  5.05762 255 255 255
-0.804275   1.39792   5.37458 255 255 255
1.50432 1.19181 4.44442 255 255 255
-0.694091  -1.04224   5.46218 255 255 255
-0.525668 0.0837168   5.63471 255 255 255
-2.00102   1.0651   5.1144 255 255 255
-1.51984 -1.22439  5.88856 255 255 255
 2.29986 -1.10321  5.43263 255 255 255
-1.84224 0.725726   5.1782 255 255 255
1.71765 1.01613 4.45341 255 255 255
-0.823069 0.0473648   5.53676 255 255 255
1.28841 0.76828 4.47972 255 255 255
-2.13237  1.06875  5.13764 255 255 255
  1.97941 -0.488437   4.81399 255 255 255
 1.61459 0.253296  4.68567 255 255 255
1.93401 -1.1063 5.00463 255 255 255
1.62624 1.02062 4.47445 255 255 255
  2.49036 -0.384014   4.69797 255 255 255
-0.731328 0.0657686   5.59933 255 255 255
  2.49028 -0.383162   4.69881 255 255 255
-0.495251   1.20098   5.55062 255 255 255
  1.4168 0.235518  4.70448 255 255 255
  -1.487 -1.21945   6.0457 255 255 255
-2.00918 0.728661  5.20165 255 255 255
1.64809 1.19988 4.41346 255 255 255
  -3.2415 -0.179286   5.83794 255 255 255
-3.04192 -1.50866  6.00237 255 255 255
-0.372176   1.20504   5.51832 255 255 255
0.235664 -0.83546  5.35655 255 255 255
 1.5203 1.03448 4.48675 255 255 255
  2.46101 -0.378404   4.70104 255 255 255
  -2.10931 -0.0773319    5.44833 255 255 255
-0.712058 0.0792646    5.6126 255 255 255
-3.65539  1.18361  5.71829 255 255 255
0.106524 -1.60393   5.4661 255 255 255
1.62835 1.20767 4.42384 255 255 255
-1.26486  1.10479  5.12313 255 255 255
0.0511562   1.19553   5.42048 255 255 255
 1.86709 -1.10062  5.01664 255 255 255
 1.6342 1.03327 4.46682 255 255 255
  2.47255 -0.373057   4.69833 255 255 255
0.923429 -1.46124  5.80531 255 255 255
 -3.48999 -0.193909   5.76464 255 255 255
-2.01534  1.35813   5.0395 255 255 255
 1.6309 1.03573 4.47009 255 255 255
 -1.21443 0.0178372   5.36411 255 255 255
 0.711974 -0.725386   5.12853 255 255 255
  2.03064 -0.459803   4.81017 255 255 255
   2.195 -1.03605  5.12198 255 255 255
-3.68487 0.798056  5.94566 255 255 255
0.571605  1.42671  5.29604 255 255 255
2.15951  1.0275 4.35948 255 255 255
0.00537812  -0.870319    5.40574 255 255 255
1.61163 1.21452 4.41917 255 255 255
  2.0374 -1.04397  4.96729 255 255 255
 0.209899 -0.828543   5.35827 255 255 255
  1.61512 -0.533508   4.83278 255 255 255
0.483836  1.43446  5.29815 255 255 255
-4.04876 -2.79819  6.53982 255 255 255
-3.09605  1.45991  5.38337 255 255 255
-3.05748 -1.48214  5.89544 255 255 255
0.315479  1.44284  5.32838 255 255 255
 0.999427 -0.653734   5.04926 255 255 255
1.33963 1.04677 4.51637 255 255 255
   1.3032 -0.608174   5.16447 255 255 255
 1.33501 0.794955  4.49222 255 255 255
-2.97591 -1.46161  5.94471 255 255 255
-1.22874 -2.04356   6.3108 255 255 255
-0.385804   1.47506   5.44269 255 255 255
-0.969703   1.43101   5.25472 255 255 255
-3.69246  1.55516   5.6681 255 255 255
  1.64469 -0.518004   4.82559 255 255 255
-3.2241 1.45062 5.27185 255 255 255
   0.0633 -0.844468    5.4199 255 255 255
1.34031 1.23986 4.45972 255 255 255
-0.982813   1.43926   5.24729 255 255 255
-0.996539   1.17283   5.30088 255 255 255
-1.42409  1.36783  4.94362 255 255 255
-0.619149   1.21895   5.49197 255 255 255
 1.35649 0.803602  4.49218 255 255 255
2.15418 1.04593 4.36577 255 255 255
0.559042  1.45077  5.28211 255 255 255
0.467377  1.45877   5.2939 255 255 255
 1.36867 0.808097  4.51717 255 255 255
-3.70265   1.5611  5.65128 255 255 255
-0.528713 -0.936551   5.38113 255 255 255
-2.11278  0.75895  5.11899 255 255 255
-2.01769  1.40814  5.02474 255 255 255
 0.670528 -0.696943   5.13316 255 255 255
-0.807862   1.48643   5.35625 255 255 255
-0.470315  -3.13459   6.60399 255 255 255
 0.713126 -0.691466   5.15814 255 255 255
0.484517  1.47202  5.29603 255 255 255
0.408354  1.22297   5.3761 255 255 255
 0.271095 -0.781212   5.35811 255 255 255
  -3.043 -1.43171  5.93328 255 255 255
-0.47519  1.51597  5.44563 255 255 255
0.988428 -0.62797  5.04696 255 255 255
1.33743 1.06502  4.5152 255 255 255
  2.00746 -0.428252   4.80496 255 255 255
-0.390603   1.51679   5.43457 255 255 255
 0.451983 -0.736973   5.29378 255 255 255
-3.75596 0.820624   5.8692 255 255 255
 0.403634 -0.741077   5.30995 255 255 255
-1.10012 -3.35841  6.71524 255 255 255
-2.2001  1.4352 5.05239 255 255 255
   1.9793 -0.427867   4.80867 255 255 255
1.31687 1.27492 4.46173 255 255 255
2.15728 1.05997 4.35625 255 255 255
-3.75763  0.83695  5.93332 255 255 255
-0.692444   1.51146   5.37422 255 255 255
 2.04711 -0.41213  4.79393 255 255 255
-2.17443  1.14434  5.11786 255 255 255
1.71726 1.06818 4.43518 255 255 255
  2.38422 -0.347223   4.71045 255 255 255
0.49244 1.49339 5.27222 255 255 255
-0.47541  1.53934  5.44257 255 255 255
-0.176953 -0.848645    5.4499 255 255 255
-0.149909   1.25548    5.4673 255 255 255
1.88481 1.25997 4.35559 255 255 255
2.08912 1.25078 4.32054 255 255 255
  1.30001 -0.565087   5.15674 255 255 255
-0.207136   1.53275   5.39276 255 255 255
-0.892087  0.858629   5.33949 255 255 255
 -3.8972 -5.95016  7.20953 255 255 255
-0.368147   1.54682   5.42229 255 255 255
-0.0301713    1.52786    5.36256 255 255 255
-2.05258  1.45336  4.99797 255 255 255
-1.42667 -3.43764  6.71062 255 255 255
 0.764438 -0.658572   5.12519 255 255 255
2.27083 1.26369 4.33487 255 255 255
-1.41514  1.15025  5.00637 255 255 255
0.430277 -2.71125  6.35584 255 255 255
-3.78024 0.826685  5.79028 255 255 255
 -3.9013 -5.76631  6.82933 255 255 255
  1.99289 -0.416559   4.80312 255 255 255
-3.90995 -5.83369  6.96746 255 255 255
 -4.1408 -4.18175  6.38291 255 255 255
  2.32965 -0.349026    4.7072 255 255 255
0.442966 0.946961  5.44897 255 255 255
  2.00692 -0.409576   4.79917 255 255 255
-1.46984  1.16813  5.00165 255 255 255
-3.62244  1.63009  5.54339 255 255 255
-1.99816  1.47407  5.00268 255 255 255
-2.74168 -1.34737  6.06901 255 255 255
-0.818812   1.26366   5.40304 255 255 255
 1.82213 0.851295  4.47842 255 255 255
-1.44626 -3.33466  6.49809 255 255 255
1.50444 1.09998 4.47854 255 255 255
-3.56739  1.67432    5.681 255 255 255
-2.19655  1.48821  5.00711 255 255 255
-3.05571 -1.38755  5.89507 255 255 255
-3.84913 -4.25233  7.04343 255 255 255
-1.15693 0.835183  5.10976 255 255 255
-0.801484  -3.15094   6.66359 255 255 255
 2.13453 -0.37699  4.77126 255 255 255
1.59705 1.09657 4.44375 255 255 255
0.00462249  -0.785712    5.43981 255 255 255
-3.92518 -5.69072  6.80907 255 255 255
1.91999 1.08542 4.36943 255 255 255
2.26204 1.09092 4.35714 255 255 255
-3.7997 -4.2708 7.24178 255 255 255
  0.22088 -0.739012   5.38737 255 255 255
-3.62871   1.3004  5.67476 255 255 255
-3.83651 -1.52783  6.27465 255 255 255
1.33247 1.31501 4.44146 255 255 255
1.43266 1.31175 4.42345 255 255 255
  1.14358 -0.545964   4.98002 255 255 255
-0.0298556   0.977664    5.52694 255 255 255
1.76983 1.29602 4.36832 255 255 255
  1.91955 -0.397941   4.81328 255 255 255
2.21937 1.27265 4.28043 255 255 255
 2.15548 0.871848  4.40054 255 255 255
0.658336 -2.53223  6.22466 255 255 255
-1.07322 0.875474  5.17452 255 255 255
 -0.36632 -0.831683   5.40158 255 255 255
-0.638977  0.955268   5.53962 255 255 255
  0.11318 -0.745992   5.41124 255 255 255
-1.28677   1.4956   5.0094 255 255 255
-0.591218   1.59942   5.45017 255 255 255
-0.229472  -0.80649   5.44036 255 255 255
-0.903891   1.26616   5.31106 255 255 255
 0.228684 -0.719637   5.37413 255 255 255
-3.74048 -4.24001  7.34675 255 255 255
2.02993 1.29358  4.3224 255 255 255
-0.642063 -0.871375   5.38132 255 255 255
-4.09808 -1.54219  6.15758 255 255 255
0.198622  1.56898  5.30602 255 255 255
0.600303  1.29466  5.31829 255 255 255
-1.20376 0.867427  5.07142 255 255 255
-1.43828   1.1972  4.98933 255 255 255
-0.396878   1.60419   5.41208 255 255 255
-3.55839 0.923007  5.82323 255 255 255
-0.455363    1.3279   5.49374 255 255 255
  1.99103 -0.374117   4.79266 255 255 255
2.26431 1.30076 4.32273 255 255 255
-0.64789   1.3152  5.43579 255 255 255
 2.11061 0.890136  4.41226 255 255 255
-1.2764 1.51782 5.01239 255 255 255
-1.50247 -1.04729   5.9177 255 255 255
-0.113358 -0.774185   5.46688 255 255 255
0.218711  1.58684  5.30021 255 255 255
-2.05554 0.853626  5.09417 255 255 255
0.549616  1.57042  5.25003 255 255 255
-1.89899  1.49754  4.85208 255 255 255
-2.20616  1.22769  5.09948 255 255 255
-0.623654   1.32907   5.46525 255 255 255
0.562038  1.31009  5.32164 255 255 255
-3.88778 -5.77315  7.28262 255 255 255
  2.32341 -0.302122   4.70337 255 255 255
-1.68001  1.49518   4.8209 255 255 255
-2.77063 -1.26934  6.09917 255 255 255
  2.30876 -0.301776   4.70098 255 255 255
-2.79456 -1.26664  6.07836 255 255 255
-1.01254  1.58682  5.18823 255 255 255
-3.45097  1.67144  5.33143 255 255 255
 -3.307 1.71042   5.472 255 255 255
-2.19397  1.53905  4.91165 255 255 255
-4.04438 -5.52511  6.63968 255 255 255
  1.97778 -0.361612   4.79271 255 255 255
-0.00676345   -0.738583     5.46895 255 255 255
-1.10534 -3.13898  6.64895 255 255 255
    1.959 -0.362504   4.79678 255 255 255
-1.83881  1.51861  4.85786 255 255 255
-1.04416 0.941345  5.23816 255 255 255
  2.05003 -0.340915    4.7757 255 255 255
1.90043 1.12418  4.3908 255 255 255
  2.28562 -0.294578    4.6966 255 255 255
 1.96371 0.909699  4.42754 255 255 255
   2.3286 -0.289923   4.70539 255 255 255
-3.36031  1.71217  5.41339 255 255 255
-1.5177 1.50959 4.79907 255 255 255
-1.00684  1.56628  5.04041 255 255 255
 -2.7586 -1.24168  6.10379 255 255 255
0.351366  1.60772  5.26751 255 255 255
2.13412 0.90748 4.39066 255 255 255
-0.699184 -0.842826   5.39188 255 255 255
0.446372  1.60601  5.25064 255 255 255
-1.25577 0.916452  5.09314 255 255 255
-0.665848 -0.834999   5.37863 255 255 255
0.503444  1.60683  5.24296 255 255 255
  1.9473 0.907862  4.41578 255 255 255
0.528802  1.60474  5.23647 255 255 255
-0.142407   1.03898    5.5269 255 255 255
-0.975236   1.30786   5.27967 255 255 255
-3.99195 -5.46521  6.69341 255 255 255
-0.735505   1.00267   5.41469 255 255 255
-3.96163 -5.62594   7.1188 255 255 255
-1.33885  1.53909  4.83024 255 255 255
2.00223 1.34614 4.31079 255 255 255
-4.14639 -4.05337   6.7185 255 255 255
2.15447 1.13154 4.33712 255 255 255
0.469625  1.34276  5.32684 255 255 255
-3.80221 -4.09218  7.26053 255 255 255
  0.27278 -0.658972   5.35402 255 255 255
2.13129 1.13397 4.32813 255 255 255
-1.37789 -3.16926  6.67976 255 255 255
-1.14276  1.57646  4.95745 255 255 255
-3.11133 -1.27678  5.86468 255 255 255
-2.00283  1.27763  5.05511 255 255 255
 1.57432 0.921837  4.48716 255 255 255
-1.43433 -4.43188  6.67261 255 255 255
-0.817157   1.63578   5.17715 255 255 255
 1.99784 0.928171  4.43307 255 255 255
-1.10587   -3.064  6.62407 255 255 255
-4.15928 -1.46404  5.96687 255 255 255
-1.64914  1.56207  4.83134 255 255 255
-0.772626   1.64542   5.20274 255 255 255
-2.10494  1.59427  4.89604 255 255 255
-3.62512  1.02553  5.83116 255 255 255
  1.80794 -0.363736   4.82962 255 255 255
-0.0654662     1.3874    5.41641 255 255 255
  2.49132 -0.236713   4.62551 255 255 255
 1.40966 -1.98519  5.52545 255 255 255
-0.890898   1.02946    5.3726 255 255 255
   1.8259 -0.356751   4.81514 255 255 255
0.440734   1.6486  5.24728 255 255 255
-0.334887 -0.753362   5.45075 255 255 255
 0.2948 1.07946 5.43362 255 255 255
-3.80018 -4.01271  7.22788 255 255 255
2.08155 1.36159 4.29082 255 255 255
0.109072  1.57426  4.93029 255 255 255
0.118082   1.3865  5.37715 255 255 255
  1.98492 -0.324447   4.77929 255 255 255
2.07798 1.37059 4.28974 255 255 255
  2.28056 -0.268703   4.69789 255 255 255
0.777071 -2.32298  6.16818 255 255 255
-3.11913 -1.24078  5.85197 255 255 255
1.65676  1.1788 4.42232 255 255 255
-4.13202 -3.96591  6.72974 255 255 255
1.22152 1.43654 4.47848 255 255 255
-4.10511 -1.40904  6.11863 255 255 255
2.01126 1.37491 4.29974 255 255 255
 2.04788 -1.65666   5.1419 255 255 255
-3.96533 -5.33697  6.71597 255 255 255
1.75484  1.3916 4.33319 255 255 255
-0.75111  1.06214  5.46122 255 255 255
1.77443 1.39476 4.33788 255 255 255
 -3.9114 -5.51381  7.20419 255 255 255
-1.48231 -3.03619  6.35096 255 255 255
-1.60076 0.973483  5.07293 255 255 255
1.87451 1.39225 4.32037 255 255 255
-3.99981  1.00885  5.57187 255 255 255
  2.19843 -0.265724   4.72152 255 255 255
-0.68912  1.71534  5.27992 255 255 255
0.36951 1.82974 7.10892 255 255 255
 1.5934 1.41177 4.36213 255 255 255
1.85947 1.39881  4.3254 255 255 255
-0.918952  0.722614   3.59953 255 255 255
-1.31418  1.31563  5.01987 255 255 255
-1.85262 0.984564   5.1032 255 255 255
-2.36481  1.67522  4.93955 255 255 255
-0.489803   1.75472   5.39304 255 255 255
1.48558    1.19 4.44647 255 255 255
1.21945 1.45583 4.47316 255 255 255
2.00209 1.39664 4.29492 255 255 255
-2.02067 0.988051  5.13211 255 255 255
0.364525      1.7  5.24895 255 255 255
  2.26502 -0.249367    4.6967 255 255 255
 2.05011 -1.63659  5.14344 255 255 255
-0.622398   1.42427   5.43347 255 255 255
0.10134 1.71924 5.28365 255 255 255
1.40387 1.19972 4.45988 255 255 255
-1.37362  1.62636  4.82435 255 255 255
 1.70348 0.974805  4.47423 255 255 255
-0.263762 -0.690943   5.46506 255 255 255
-1.46605 -3.00325  6.39871 255 255 255
-2.00566  1.33767  5.03694 255 255 255
  0.11566 -0.630113   5.48824 255 255 255
 1.74584 -1.72687  5.21396 255 255 255
-0.295284   1.43641   5.44286 255 255 255
 0.245388 -0.606921   5.46003 255 255 255
 2.0834 1.18351 4.34008 255 255 255
  1.71875 -0.338706    4.8305 255 255 255
-1.98222   1.0101  5.12048 255 255 255
1.61243 1.20177 4.42322 255 255 255
-1.22175  1.35505  5.08518 255 255 255
-1.74605  1.01876  5.08587 255 255 255
-4.04871 -5.23938   6.6281 255 255 255
 1.43008 -1.86677  5.49215 255 255 255
2.37235 1.21785 4.44487 255 255 255
-0.109184   1.43041   5.40017 255 255 255
-1.50038  1.02559  5.04502 255 255 255
0.0818465   1.42729   5.36748 255 255 255
 1.86182 0.994611  4.42045 255 255 255
 0.136274 -0.608318   5.47912 255 255 255
-1.51142   -2.874  6.13367 255 255 255
-1.00987  1.09987  5.29399 255 255 255
 1.72595 -0.32349  4.82352 255 255 255
1.96596 1.19482 4.35726 255 255 255
0.354499  1.15707  5.39986 255 255 255
-1.71397 -2.94599  6.19837 255 255 255
-1.86677  1.03594  5.06773 255 255 255
-0.680455  -2.70929   6.48508 255 255 255
-3.83218 -5.47681  7.50379 255 255 255
 0.185699 -0.588654   5.47662 255 255 255
 1.84803 -1.63878  5.17201 255 255 255
-0.20287  1.44946  5.41531 255 255 255
-1.41922 -2.95209  6.57876 255 255 255
-1.84953  1.05872  5.08136 255 255 255
-1.22474 -2.89065  6.59174 255 255 255
-4.08145 -3.67693  6.32409 255 255 255
 0.234726 -0.573888   5.44712 255 255 255
-1.49635  1.06518  5.03093 255 255 255
2.28799 1.20971 4.35357 255 255 255
  2.25109 -0.216406    4.7027 255 255 255
  2.30615 -0.203253   4.68846 255 255 255
 1.97333 -1.59041  5.14226 255 255 255
1.94209 1.01868 4.38687 255 255 255
-1.31563  1.36504  5.00733 255 255 255
-0.976895   1.14236   5.32038 255 255 255
-0.842773 -0.732428   5.38017 255 255 255
-0.75272  1.18126    5.458 255 255 255
-4.05936 -5.36159  7.15506 255 255 255
-1.45289 -2.92119  6.50718 255 255 255
-4.10466 -1.29418  6.11804 255 255 255
0.129968   1.4623  5.36246 255 255 255
-1.43338 -4.19005  6.62111 255 255 255
-1.25254  1.39119  5.06099 255 255 255
-1.51574 -2.92907  6.40906 255 255 255
 -2.04031 -0.927699   5.69163 255 255 255
-1.48075  1.37234  4.95255 255 255 255
-0.858145 -0.720702   5.38476 255 255 255
-1.50443 -2.84894  6.22116 255 255 255
-0.813574  -2.72202   6.56506 255 255 255
-4.08252 -3.61291   6.3029 255 255 255
-0.0750736    1.48204    5.38773 255 255 255
 -4.1103 -3.69718  6.60966 255 255 255
-2.95237 -1.06109  5.80561 255 255 255
-1.1466 1.42681 5.13514 255 255 255
-1.1452 1.42665 5.13388 255 255 255
   1.1425 -0.357926   4.92731 255 255 255
-0.290024   1.49629   5.41592 255 255 255
2.00712 1.23002 4.34185 255 255 255
1.52799 1.05926 4.48377 255 255 255
0.0474537  -0.54631   5.54284 255 255 255
-1.44776  1.38455  4.94047 255 255 255
0.349019  1.22611  5.37931 255 255 255
  2.06854 -0.195725   4.52466 255 255 255
-0.778027  -2.67667    6.5269 255 255 255
-0.638509   1.50189   5.40195 255 255 255
-0.0661372  -0.562473    5.55899 255 255 255
 0.471699 -0.466578   5.38365 255 255 255
1.70009 1.06277 4.45118 255 255 255
-0.918124   1.47997   5.25843 255 255 255
-1.50123  1.12607    5.013 255 255 255
 -1.317   1.145 5.04728 255 255 255
2.32931 -1.5181 5.54255 255 255 255
0.500386 -0.45347  5.37011 255 255 255
1.37816 1.07771 4.47579 255 255 255
 -2.79328 -0.986855   5.77922 255 255 255
-0.118785   1.51432   5.38081 255 255 255
1.44177 1.08918 4.49156 255 255 255
0.0749199  -2.28308   6.27754 255 255 255
-4.15356 -3.56674  6.55897 255 255 255
-0.777231   1.51323   5.34645 255 255 255
-0.160011   1.52629      5.39 255 255 255
  -1.8772 -0.820796   5.62093 255 255 255
-1.3056 1.16887 5.06241 255 255 255
  1.50142 -0.258429   4.50502 255 255 255
  1.04531 -0.329816   4.97382 255 255 255
1.48023 1.09567 4.47876 255 255 255
-0.635007 -0.602712   5.45765 255 255 255
-1.96987   1.4627  5.00364 255 255 255
 -1.53778 -0.739121   5.68575 255 255 255
-1.12304 -2.63378  6.50818 255 255 255
-4.15437 -1.16264  6.00997 255 255 255
 0.389673 -0.434253   5.44828 255 255 255
-1.47407 -2.74342  6.52829 255 255 255
2.14609 1.08104 4.34304 255 255 255
0.0354054  -2.08705   5.62877 255 255 255
  1.56606 -0.233721   4.82124 255 255 255
-1.31569  1.18181  5.03474 255 255 255
-1.37393  1.46956  4.95895 255 255 255
-3.81417 -3.50285  7.11139 255 255 255
 -3.01045 -0.957556   5.80807 255 255 255
-0.796074   -2.4982   6.47339 255 255 255
0.622808 -0.38157   5.3276 255 255 255
-4.15018 -1.13787  6.02625 255 255 255
-1.7145 1.46626 4.92012 255 255 255
2.38115 1.12719 4.48431 255 255 255
1.38763 1.31032 4.42471 255 255 255
 0.394633 -0.410355   5.41647 255 255 255
-1.54735  1.46252  4.89533 255 255 255
-0.916976   1.54924   5.24001 255 255 255
-0.75483   1.2907  5.42315 255 255 255
0.218755 -2.06704  6.06266 255 255 255
-0.826283 -0.588932    5.3724 255 255 255
-3.94587 -3.36232  6.68607 255 255 255
-0.908831  -2.47329   6.51709 255 255 255
1.66026 1.32045 4.37741 255 255 255
1.80363 1.11725 4.40951 255 255 255
-0.301706   1.32711   5.46857 255 255 255
2.20685 1.30092 4.28766 255 255 255
-1.4813 1.21322 4.99451 255 255 255
 -1.58429 -0.700065   5.52365 255 255 255
-1.34497  1.22721  5.02124 255 255 255
-0.117085 -0.474205   5.57285 255 255 255
  1.89463 -0.156723      4.75 255 255 255
 2.2795 -1.3692 5.51701 255 255 255
1.95345 1.12628 4.36896 255 255 255
1.70487 1.33378  4.3668 255 255 255
-2.02718   1.2624  5.05829 255 255 255
-2.3156 1.54214 4.93639 255 255 255
-1.24934  1.51573  4.89055 255 255 255
-2.26461  1.54845  4.93595 255 255 255
-4.01652  1.35733  5.48283 255 255 255
-3.89867 -3.33576  6.94437 255 255 255
-2.13737  1.53877     4.91 255 255 255
-1.31302  1.26838  5.03686 255 255 255
-3.84639 -3.28023  6.88383 255 255 255
 -2.75436 -0.872787   6.00628 255 255 255
 -0.85697 -0.572122   5.38417 255 255 255
-1.95133  1.53578  4.87592 255 255 255
1.82124 1.15324 4.40076 255 255 255
-0.661283   -0.5416   5.48241 255 255 255
 -3.01357 -0.908151   5.82344 255 255 255
-1.69785  1.26383  5.00617 255 255 255
-0.978721   1.57166   5.06399 255 255 255
 -3.17905 -0.928653   5.84156 255 255 255
-0.652633    1.3718   5.41854 255 255 255
-0.364528 -0.490683   5.54235 255 255 255
-1.10812  1.55662  4.98096 255 255 255
-0.988943 -0.577025    5.3673 255 255 255
-1.71984  1.53072  4.83956 255 255 255
-0.791198   1.61128   5.18571 255 255 255
-0.701058 -0.533908   5.45813 255 255 255
 1.52663 -0.18941  4.68622 255 255 255
  1.21181 -0.239714   4.88235 255 255 255
 2.27482 -1.31138   5.5167 255 255 255
 1.4973 1.17548 4.45232 255 255 255
-1.40287 -2.47696  6.49524 255 255 255
0.69399 1.58475 5.12513 255 255 255
 -1.78506 -0.693283   5.55404 255 255 255
-2.30977  1.59539  4.95049 255 255 255
  1.63223 -0.173071   4.79858 255 255 255
-3.31902  1.76713  5.46653 255 255 255
 -1.3294 -2.42891   6.4764 255 255 255
-3.36797  1.76484  5.40469 255 255 255
1.84287 1.17867 4.39077 255 255 255
1.40741 1.39331 4.41094 255 255 255
 2.15781 -1.21072  4.99422 255 255 255
0.0304184    1.6592   5.28536 255 255 255
-3.91638 -3.21717  6.85759 255 255 255
1.78608  1.3764 4.34185 255 255 255
-3.07469  -0.8844  5.81403 255 255 255
-1.47704 -2.40536  6.27191 255 255 255
0.0889805 -0.399112   5.59302 255 255 255
-0.573363   1.72566   5.41047 255 255 255
-0.00633961     1.68533     5.30148 255 255 255
 2.24597 -1.25151  5.39718 255 255 255
-3.68591  1.75154  5.19249 255 255 255
0.43249 1.40834 5.31157 255 255 255
-1.44809 -2.38468  6.30998 255 255 255
   2.26647 -0.0681163    4.65877 255 255 255
-2.17133  1.35459  5.05871 255 255 255
1.70278 1.20513 4.40488 255 255 255
  1.96648 -0.111723    4.7267 255 255 255
  2.49925 -0.028271   4.61878 255 255 255
   2.03099 -0.0959696    4.70819 255 255 255
 1.8163 -1.2754 5.07483 255 255 255
2.01296 1.20069 4.35036 255 255 255
-1.33371  1.63549  4.89988 255 255 255
0.39267 1.70176 5.25424 255 255 255
-3.98994 -3.13579  6.73563 255 255 255
   1.99503 -0.0973084     4.7153 255 255 255
 2.16949 -1.16608  4.99534 255 255 255
-0.153175   1.45719   5.40124 255 255 255
  1.773 1.41006 4.32913 255 255 255
 -2.85455 -0.812984   5.76751 255 255 255
-3.95208 -3.15185  6.92375 255 255 255
-3.97006 -3.06649  6.61721 255 255 255
-1.36887  1.36326  4.98289 255 255 255
 0.590669 -0.298405   5.36394 255 255 255
1.97316 1.40461 4.29732 255 255 255
0.339594  1.44758  5.32342 255 255 255
2.32684  1.4057 4.32346 255 255 255
  1.86233 -0.105378   4.73986 255 255 255
-1.23661  1.38905  5.06702 255 255 255
-1.02731  1.43095  5.20474 255 255 255
-0.556655 -0.457822   5.51001 255 255 255
-0.964938   1.71957   5.16818 255 255 255
2.32111 1.22489 4.35445 255 255 255
-0.458812   1.49664   5.44988 255 255 255
0.431549  1.46203  5.30665 255 255 255
1.38269 1.42514 4.31906 255 255 255
1.73831 1.40966 4.28986 255 255 255
-0.869863   1.46835   5.31973 255 255 255
-3.28868  1.87582  5.45083 255 255 255
-3.96066 -3.02432  6.74265 255 255 255
-1.83215   1.3937  5.00235 255 255 255
 -3.31038 -0.853458   5.80705 255 255 255
2.08364 1.39812 4.25602 255 255 255
-0.244048 -0.393766   5.56539 255 255 255
-0.750364 -0.465368   5.46997 255 255 255
-0.603016 -0.442898   5.46402 255 255 255
    2.3417 -0.0173286    4.59295 255 255 255
2.34347 1.25477 4.39268 255 255 255
-0.991818 -0.496241   5.37313 255 255 255
-0.740559  -2.05599   6.20574 255 255 255
1.65821 1.25773 4.39934 255 255 255
-4.15609 -2.98057  6.48853 255 255 255
1.38068 1.43901 4.27607 255 255 255
-1.1847 1.70657 4.96315 255 255 255
-0.848005  -2.05888   6.24149 255 255 255
 -3.10489 -0.798908   5.79669 255 255 255
-0.768483   1.79539   5.28496 255 255 255
-0.224911   1.79627   5.32616 255 255 255
-2.03735  1.43421  5.01433 255 255 255
-0.579521   1.54435   5.46394 255 255 255
0.0488882 -0.329306    5.6317 255 255 255
 -2.13305 -0.642083   5.60217 255 255 255
  1.46813 -0.120873   4.74506 255 255 255
 1.37109 -1.30977  5.35357 255 255 255
-1.00038 -2.05296  6.24432 255 255 255
1.27452 1.45448   4.288 255 255 255
0.325272  1.51119  5.31225 255 255 255
 1.84475 -1.13443   5.0302 255 255 255
0.163793 -1.61234  5.46476 255 255 255
0.434473  1.50573  5.28316 255 255 255
  -3.1812 -0.771236   5.78514 255 255 255
1.34756 1.45904 4.28572 255 255 255
 -1.51563 -0.529269   5.46759 255 255 255
   1.63 1.43474 4.22421 255 255 255
0.460039  1.76126  5.21132 255 255 255
-0.986095  -2.02933   6.27854 255 255 255
  1.34065 -0.124419   4.83894 255 255 255
-1.89476  1.45033  4.97766 255 255 255
   2.28226 0.00823892    4.62473 255 255 255
 -4.15056 -0.900085   5.95782 255 255 255
-1.43202 -2.13306  6.40407 255 255 255
   1.87425 -0.0457616    4.72072 255 255 255
0.211574 -1.56313  5.44319 255 255 255
2.36135 1.45219 4.31447 255 255 255
1.50341 1.45564 4.25886 255 255 255
-0.0398535  -0.298455    5.66597 255 255 255
-3.58071   1.9078  5.24164 255 255 255
0.257282 -1.51472  5.42621 255 255 255
 -1.76944 -0.540749   5.45928 255 255 255
1.60476 1.45294 4.24033 255 255 255
 -3.09468 -0.726961   5.77109 255 255 255
1.72783 -1.0952  5.0386 255 255 255
  2.0423 -1.01279  4.96176 255 255 255
-1.53004  1.48489  4.89984 255 255 255
  1.465 1.32476   4.413 255 255 255
-1.39701  1.70585  4.77553 255 255 255
1.51068 1.32333 4.39764 255 255 255
 0.345669 -0.232362   5.54652 255 255 255
1.65563 1.45092 4.22548 255 255 255
 -0.94211 -0.407827   5.40485 255 255 255
0.0681129 -0.260387   5.67941 255 255 255
0.0192965   1.80954   5.25246 255 255 255
 -3.1789 -2.48835  6.44302 255 255 255
1.71742  1.4498 4.21406 255 255 255
 2.25923 -1.01855  5.43046 255 255 255
2.35397 1.33733 4.40976 255 255 255
-1.63838  1.73708  4.79364 255 255 255
-3.88815 -2.67378  6.70834 255 255 255
-0.845746   1.61149    5.2825 255 255 255
 -1.14932 -0.414033   5.34751 255 255 255
-0.630132    1.8703   5.35812 255 255 255
2.24867 1.31769 4.29608 255 255 255
-1.35989   1.7547  4.87948 255 255 255
-4.07882 -2.64025  6.33416 255 255 255
1.85891 1.33995 4.33784 255 255 255
1.96159 1.44373 4.17368 255 255 255
-0.586734   1.88313   5.36639 255 255 255
 -2.76178 -0.625292   5.69347 255 255 255
-1.05198 -1.89513  6.25934 255 255 255
-1.67802  1.53257   4.8317 255 255 255
 0.401626 -0.190847   5.52828 255 255 255
-1.87258  1.77777  4.85569 255 255 255
  2.26286 -0.983694   5.42351 255 255 255
 -1.74442 -0.480238   5.48704 255 255 255
2.25266 1.33476 4.29195 255 255 255
-4.08493 -2.58683  6.22151 255 255 255
-0.386271   1.87174   5.33503 255 255 255
-0.604388 -0.321657   5.54973 255 255 255
   1.92014 0.00858476    4.69943 255 255 255
-1.74618    1.553  4.84304 255 255 255
1.34674 1.50131 4.29114 255 255 255
-0.487554 -0.299306    5.5666 255 255 255
-2.62571 -2.23329  6.29565 255 255 255
1.56741 1.48578 4.25002 255 255 255
 -2.65724 -0.592904   5.66427 255 255 255
2.26378 1.43198 4.12695 255 255 255
  1.86884 -0.972041   4.97844 255 255 255
-1.50412  1.55266  4.80181 255 255 255
 -1.82786 -0.475757   5.47764 255 255 255
-3.54949  1.74788  5.32169 255 255 255
1.64234  1.4848 4.23936 255 255 255
   1.37213 -0.0510569    4.81041 255 255 255
-3.63998  1.95554  5.17036 255 255 255
  1.84818 0.0096252   4.71325 255 255 255
  2.39921 0.0827853   4.61322 255 255 255
 -1.34566 -0.404186   5.38675 255 255 255
-0.676697   1.87822   5.26774 255 255 255
-3.51141  1.76043  5.34683 255 255 255
 0.445072 -0.159264   5.50534 255 255 255
1.51989 1.49939 4.26051 255 255 255
 0.757898 -0.122483   5.29239 255 255 255
-0.213816   1.87959   5.31171 255 255 255
-1.21891  1.60732  4.92029 255 255 255
2.10621 1.44923 4.13991 255 255 255
-2.06148  -1.9873   5.9713 255 255 255
2.25374 1.44202 4.12573 255 255 255
  1.85194 -0.934982    4.9683 255 255 255
 -2.077   1.626 4.89561 255 255 255
2.27059 1.44674 4.14272 255 255 255
 -2.52151 -0.537733   5.60204 255 255 255
-4.12885 -2.49062  6.24466 255 255 255
1.59029 1.49972 4.24872 255 255 255
-0.290769 -0.232433   5.66167 255 255 255
-0.763592    1.6845   5.21153 255 255 255
1.61563 1.49828 4.24077 255 255 255
1.81814 1.48377 4.20787 255 255 255
 -3.9231 -2.46115  6.56402 255 255 255
1.94358 1.38257 4.29752 255 255 255
 2.39343 0.103443  4.59355 255 255 255
1.71155 1.49454 4.22269 255 255 255
  2.4044 0.107521  4.61288 255 255 255
  2.06047 -0.861032   4.91234 255 255 255
-1.33312  1.80616  4.88868 255 255 255
-0.224247   1.89099    5.3003 255 255 255
0.0272201   1.69775   5.27538 255 255 255
-0.136601   1.89149   5.28568 255 255 255
-0.467041 -0.244425   5.60622 255 255 255
-1.59388  1.61673  4.82138 255 255 255
  2.25688 -0.863128   5.39166 255 255 255
-0.249857  -0.20966   5.66102 255 255 255
-1.37524   1.6066  4.80793 255 255 255
  1.94476 -0.854372   4.93282 255 255 255
0.533082  1.83859  5.17435 255 255 255
  2.18665 -0.812664   5.02812 255 255 255
0.0170927 -0.174571     5.741 255 255 255
-1.65076 -1.77131  5.84015 255 255 255
1.83456 1.49709 4.19522 255 255 255
 -1.10964 -0.314921   5.35457 255 255 255
0.478116  1.85359  5.17847 255 255 255
1.93781 1.49695 4.18442 255 255 255
1.69233 1.42449 4.33554 255 255 255
-1.14463 -0.30816  5.34963 255 255 255
 2.2537 1.47038 4.12215 255 255 255
2.25263 1.47336 4.12702 255 255 255
0.0281534   1.73751   5.26163 255 255 255
0.0193702   1.89821   5.22424 255 255 255
0.515873   1.8614  5.16616 255 255 255
 -2.45237 -0.460325   5.59034 255 255 255
2.09568 1.49018 4.15088 255 255 255
0.541568 -1.15935  5.26646 255 255 255
 -3.10679 -0.542023   5.65221 255 255 255
-0.265809   1.77856   5.34091 255 255 255
-0.121818  -0.15101   5.73965 255 255 255
  2.2911 0.126635  4.57558 255 255 255
  0.472086 -0.0751862    5.48729 255 255 255
2.10052 1.40486 4.23799 255 255 255
   2.1408 -0.742315   4.86946 255 255 255
2.03198 1.50049 4.16522 255 255 255
2.13808  1.4901 4.13716 255 255 255
 -2.84921 -0.490841   5.65954 255 255 255
  -3.472 -2.15383  6.39355 255 255 255
0.629569 -1.09687  5.22032 255 255 255
2.37462 1.42993 4.28859 255 255 255
-1.20918 -0.28413  5.33831 255 255 255
 -1.16434 -0.278395   5.34537 255 255 255
  2.07929 -0.746784   4.87868 255 255 255
-0.951766   1.94457   5.13227 255 255 255
 -1.14249 -0.273867   5.34837 255 255 255
-0.811715   1.80321   5.23767 255 255 255
  1.41575 -0.929927   5.23352 255 255 255
2.03983 1.51504 4.15278 255 255 255
-1.12976   1.7614  5.04397 255 255 255
-1.62076 -1.64626  5.78636 255 255 255
-1.62963   1.8692  4.79201 255 255 255
  1.8352 -0.79327  4.92948 255 255 255
-0.641647   1.97861   5.27842 255 255 255
-3.29129 -0.53422   5.6944 255 255 255
 -2.93167 -0.486936   5.62961 255 255 255
  2.10283 -0.727642   4.86203 255 255 255
2.09853 1.51716 4.15886 255 255 255
-0.896484 -0.229163   5.45415 255 255 255
-3.73531  1.88236  5.10866 255 255 255
-0.148182   1.82244   5.29949 255 255 255
-0.362502   1.98224   5.30059 255 255 255
-4.13271 -2.21878  6.20145 255 255 255
2.28614 1.46118 4.29824 255 255 255
-0.983581 -0.233004   5.42958 255 255 255
0.29623 1.92683 5.19618 255 255 255
-0.00571118   -0.104359     5.79091 255 255 255
0.367744 -1.12596  5.29107 255 255 255
-0.0651439    1.96153    5.24529 255 255 255
 -3.24728 -0.511591   5.66792 255 255 255
-0.459281     2.007   5.31146 255 255 255
1.82127 1.44869 4.20201 255 255 255
 -2.40641 -0.402349   5.57109 255 255 255
 -3.01099 -0.473048     5.638 255 255 255
 -1.4089 -1.59885  6.21096 255 255 255
1.69009 1.46612  4.2288 255 255 255
  2.16669 -0.697647   4.96624 255 255 255
-0.120367  -1.22453   5.44471 255 255 255
0.608727 -1.04766  5.23073 255 255 255
2.24047 1.43038  4.1249 255 255 255
-0.232114   1.99658   5.26987 255 255 255
-4.14279 -2.16178  6.19845 255 255 255
1.80497 1.56879 4.20503 255 255 255
1.55881 1.61334 4.30348 255 255 255
1.71263 1.57807 4.21486 255 255 255
-0.0916065    -1.1898    5.41647 255 255 255
2.03704  1.5537 4.16796 255 255 255
0.0693718   1.97994   5.21379 255 255 255
-0.463899   1.89308   5.34429 255 255 255
0.0592622   1.84955   5.25836 255 255 255
-4.09649 -2.13866   6.3282 255 255 255
 0.967529 -0.989309    5.6486 255 255 255
2.00411 1.55806 4.14984 255 255 255
-0.580875   2.05812   5.31248 255 255 255
-0.0956733    2.01306    5.23864 255 255 255
-1.31753 -1.50701  6.19548 255 255 255
1.72326 1.59469 4.20348 255 255 255
2.22463 1.44357 4.12611 255 255 255
2.05769 1.56755 4.15864 255 255 255
1.80692 1.61239 4.26167 255 255 255
1.36259 1.65979 4.33503 255 255 255
0.0198285   1.86846   5.23224 255 255 255
0.0445739  -1.11801   5.32583 255 255 255
2.03717 1.57865 4.16139 255 255 255
2.15519 1.56472 4.13722 255 255 255
  1.97434 -0.680026   4.87432 255 255 255
  2.01573 -0.673715   4.86387 255 255 255
-1.21986  1.99205  4.93531 255 255 255
-1.48341 -1.51948  6.04683 255 255 255
-0.0458354    2.02793    5.22187 255 255 255
0.298204  1.85808  5.20803 255 255 255
-0.00725748    -1.12206     5.33711 255 255 255
-0.0954147    2.03641    5.23182 255 255 255
-1.54671 -1.48815  5.71826 255 255 255
2.07041   1.478 4.15784 255 255 255
 2.2483 1.55763 4.10627 255 255 255
1.85008 1.50247 4.19405 255 255 255
1.87288 1.50179 4.19223 255 255 255
2.07488 1.60274  4.2092 255 255 255
1.27281 1.68297 4.34255 255 255 255
1.72575 1.61402 4.18347 255 255 255
  1.69234 -0.719521   4.93421 255 255 255
  2.05967 -0.637132   4.84741 255 255 255
-3.71125  2.01404  5.10362 255 255 255
-0.510299   2.09344   5.29414 255 255 255
2.23309 1.56692 4.10014 255 255 255
1.32223 1.68691 4.33171 255 255 255
-1.49413 -1.47513  6.03635 255 255 255
1.75715 1.62389 4.20236 255 255 255
-0.4274 2.09744 5.28006 255 255 255
-3.66126  2.06674  5.13677 255 255 255
1.73388 1.62673 4.18614 255 255 255
-4.08898 -2.03442  6.29299 255 255 255
-1.14315   1.9101  5.00256 255 255 255
-0.450789   1.98108   5.31943 255 255 255
0.144417  1.92779  5.21885 255 255 255
2.05551 1.51756 4.14853 255 255 255
 0.575321 -0.947889   5.21323 255 255 255
  1.01466 -0.893525   5.60648 255 255 255
  2.19865 -0.572016   4.76241 255 255 255
-1.02582  1.94807  5.07145 255 255 255
  2.44048 -0.517632   4.71992 255 255 255
  2.47214 -0.508466   4.71349 255 255 255
-0.960244   1.96018    5.1193 255 255 255
 2.0772 1.53072 4.16326 255 255 255
-3.90125 -1.96233  6.50494 255 255 255
-0.183211   1.98384   5.26432 255 255 255
  2.14605 -0.570251   4.77543 255 255 255
-1.28505  1.91406  4.86513 255 255 255
1.24406 1.62107 4.29861 255 255 255
2.04241 1.55104 4.17325 255 255 255
-1.54899 -1.34131  5.74998 255 255 255
-2.33338  2.00274  4.85828 255 255 255
  2.02698 -0.552533   4.77431 255 255 255
-1.28749  1.96152  4.85153 255 255 255
-0.643554   2.06689   5.25435 255 255 255
 1.5986  1.6445 4.29397 255 255 255
 0.940131 -0.773602   5.07022 255 255 255
1.55254 1.66202 4.30146 255 255 255
  2.46594 -0.442612   4.71917 255 255 255
  1.80376 -0.567977   4.82875 255 255 255
-0.827814   2.09676   5.17507 255 255 255
-4.09618 -1.82869  6.23797 255 255 255
-0.362632  -1.01862    5.3736 255 255 255
0.0346609 -0.924296   5.38391 255 255 255
  2.01409 -0.506439   4.81309 255 255 255
 0.575252 -0.796611   5.19053 255 255 255
1.98348 1.60935 4.13249 255 255 255
-0.418843 -0.995068   5.37687 255 255 255
  2.15333 -0.470116   4.79718 255 255 255
-0.973836   2.08807   5.07544 255 255 255
-0.102046 -0.933593   5.41208 255 255 255
1.55628 1.68969 4.28919 255 255 255
0.542504 -0.79466  5.18898 255 255 255
0.099133  2.07491  5.18365 255 255 255
-1.17601  2.06836  4.94306 255 255 255
  2.38399 -0.412563   4.70789 255 255 255
-0.776989   2.13438   5.20659 255 255 255
  2.01252 -0.488041   4.80825 255 255 255
  1.57708 -0.569458   4.86771 255 255 255
0.195302  2.07394  5.16744 255 255 255
  1.84643 -0.514031   4.79828 255 255 255
 0.259884 -0.838821   5.36031 255 255 255
0.284269  2.07138  5.15369 255 255 255
-4.10686 -1.73527  6.21714 255 255 255
-2.78794 -1.47123  6.10032 255 255 255
2.26175 1.61489 4.09549 255 255 255
  1.57946 -0.548349   4.88045 255 255 255
2.01526 1.65816 4.15983 255 255 255
