ply
format ascii 1.0
comment written by MAPTK
element vertex 1542
property float x
property float y
property float z
property uint track_id
end_header
-992.208 -1123.48 54.1145 21900
-1144.55 -1148.9 80.473 21987
-1137.43 -1139.06 82.2108 21999
-1095.91 -1124.19 88.7868 22002
-1097.6 -1173.73 76.875 22016
-1105.69 -1184.88 89.0621 22020
-1004.32 -1216.46 60.0134 22029
-1117.33 -1244.63 66.2019 22034
-1118.85 -1295.98 85.277 22137
-1179.95 -1260.53 60.8583 22139
-1181.57 -1253.76 61.7946 22141
-1121.17 -1293.26 82.8077 22148
-1180.07 -1341.42 71.6831 22156
-838.528 -876.145 70.7788 22323
-835.015 -874.504 66.4718 22324
-839.623 -879.511 60.5659 22325
-822.326 -874.833 75.4915 22333
-793.574 -862.243 69.1825 22338
-824.693 -876.164 64.6206 22340
-803.493 -871.722 62.4773 22354
-696.143 -963.438 63.7417 22360
-683.53 -923.184 49.9757 22367
-629.872 -985.588 45.9515 22368
-687.09 -954.702 69.6201 22393
-699.066 -953.924 68.7363 22396
-681.37 -962.153 71.213 22397
-886.892 -989.402 82.4422 22444
-879.978 -937.876 76.3584 22448
-855.684 -1040.51 68.3904 22459
-795.557 -1041.93 66.4848 22473
-728.284 -1107.33 51.8855 22480
-742.818 -1019.25 51.1077 22481
-746.672 -1020.59 48.3902 22486
-735.069 -1083.25 48.3273 22497
-765.197 -1031.6 75.4382 22510
-944.051 -1066.34 76.9938 22579
-907.709 -1111.34 62.2304 22585
-949.459 -1029.03 59.3813 22589
-901.124 -1115.52 48.732 22591
-894.14 -1130.47 50.541 22593
-944.78 -1035.59 44.0907 22597
-800.373 -1216.52 59.2927 22600
-850.25 -1224.94 57.714 22603
-795.478 -1135.92 51.9949 22609
-795.734 -1191.81 59.7281 22611
-791.633 -1159.79 51.4003 22612
-809.146 -1212.69 66.4688 22619
-842.557 -1187.91 90.2705 22624
-854.764 -1184.85 91.5905 22630
-794.947 -1210.75 57.3518 22637
-990.095 -1248.33 50.0063 22690
-1015.21 -1255.32 85.7473 22691
-997.445 -1252.77 55.2839 22694
-1013.13 -1243.17 57.2178 22699
-880.846 -1241.99 55.0146 22716
-919.412 -1290.09 85.8337 22718
-939.893 -1231.24 62.4017 22719
-944.367 -1239.49 59.5116 22722
-917.478 -1295.84 79.7937 22725
-862.47 -1271.8 60.7561 22735
-1066.5 -1422.23 73.6939 22969
-1013.96 -1482.03 88.0063 22972
-1040.76 -1508.43 96.6419 22975
-1012.54 -1473.22 86.6238 22977
-648.548 -965.718 60.3772 23067
-567.539 -972.824 49.9336 23080
-572.676 -1019.78 69.0581 23085
-510.285 -975.162 41.3996 23090
-555.313 -977.688 33.8395 23105
-562.557 -1017.18 61.9717 23107
-746.678 -979.266 39.0404 23179
-770.856 -1029.27 76.8215 23181
-782.935 -1039.29 72.1505 23185
-772.738 -1044.46 72.0574 23186
-637.611 -1127.05 41.0994 23203
-671.4 -1118.53 54.4228 23210
-636.98 -1050.73 50.5594 23216
-676.137 -1095.11 43.3395 23220
-757.078 -1159.9 70.8396 23290
-755.164 -1161.47 66.7059 23291
-790.776 -1177.05 54.4594 23292
-755.76 -1152.63 73.5307 23295
-846.857 -1193.32 94.0233 23299
-621.699 -1205.6 45.0584 23306
-719.268 -1169.76 46.205 23310
-628.043 -1203.11 42.7116 23313
-635.417 -1180 47.5103 23314
-632.028 -1191.76 47.0053 23315
-636.586 -1189.1 47.5834 23317
-667.007 -1243.19 72.9309 23324
-675.394 -1204.4 78.3321 23327
-706.383 -1247.83 41.2992 23335
-715.688 -1247.85 35.9809 23344
-847.188 -1305.7 62.2788 23414
-854.4 -1308.78 69.5928 23427
-725.446 -1375.43 59.9841 23435
-737.817 -1377.49 60.0134 23439
-749.211 -1372.24 58.0501 23449
-728.501 -1383.94 41.7147 23451
-675.474 -1304.57 53.2757 23456
-738.017 -1325.23 59.461 23463
-734.404 -1366.88 59.5557 23467
-794.722 -1412.32 78.6551 23569
-752.618 -1438.63 77.9186 23576
-783.32 -1409.04 83.2294 23580
-890.099 -1559.02 99.532 23704
-876.791 -1523.63 89.2763 23707
-881.369 -1563.91 94.3402 23708
-819.637 -1536.03 78.524 23720
-866.346 -1524.01 85.4508 23724
-670.622 -1123.32 47.026 23920
-535.248 -1163.25 70.7435 23936
-521.346 -1160.39 63.2329 23966
-614.896 -1179.76 46.8814 24037
-656.606 -1168.32 46.062 24043
-556.782 -1256.92 45.3693 24064
-590.768 -1288.67 47.916 24070
-576.023 -1196.49 48.8188 24073
-572.955 -1291.16 49.0691 24076
-572.39 -1428.01 45.6055 24162
-606.567 -1388.68 39.177 24174
-545.244 -1383.92 47.7334 24178
-579.502 -1370.96 46.3297 24180
-545.682 -1388.63 41.1176 24188
-558.489 -1345.41 42.8186 24193
-540.352 -1381.2 53.2683 24194
-351.958 -1075.72 67.5981 24542
-382.296 -1074.72 62.5719 24567
-413.538 -1084.08 66.4459 24570
-528.137 -1190.66 71.1547 24641
-405.609 -1125.54 64.0758 24674
-370.369 -1131.12 69.9455 24685
-521.65 -1261.68 48.4895 24768
-409.968 -1356.32 63.2659 24783
-390.133 -1302.94 66.1351 24811
-475.532 -1385.89 55.4189 24909
-453.134 -1450.39 53.1707 24918
-439.269 -1396.17 55.0781 24927
-454.173 -1387.51 58.5665 24928
-449.666 -1534.09 58.4612 25039
-430.345 -1516.82 64.5009 25040
-460.174 -1109.84 63.8174 25266
-335.891 -1113.98 58.1952 25295
-322.949 -1102.49 59.943 25297
-395.119 -1102.78 63.4733 25298
-342.175 -1107.64 56.9246 25300
-339.644 -1100.57 50.9225 25301
-331.273 -1117.88 54.5404 25307
-404.136 -1108.73 59.7714 25311
-331.98 -1109.98 60.4005 25313
-324.082 -1114.22 59.0338 25315
-420.997 -1086.4 62.0829 25318
-316.188 -1106.73 51.5498 25322
-225.819 -996.875 80.0448 25327
-293.325 -1001.34 62.4627 25338
-221.132 -998.422 59.9978 25348
-209.643 -1024.68 66.7851 25350
-288.374 -1004.34 61.8149 25363
-426.235 -1258.24 65.3747 25414
-499.629 -1193.45 60.4569 25420
-477.986 -1229.49 65.4669 25422
-443.637 -1272.62 77.8145 25428
-502.835 -1191.46 58.533 25434
-372.011 -1236.11 57.0092 25449
-332.699 -1196.59 57.5583 25458
-301.378 -1210.46 55.0977 25469
-388.391 -1251.81 69.216 25470
-356.073 -1260.63 51.7369 25474
-253.506 -1230.34 61.6618 25479
-253.348 -1205.44 58.204 25480
-271.708 -1178.55 67.2879 25495
-292.384 -1358.07 57.4505 25578
-309.233 -1366.35 64.1461 25591
-305.475 -1332.78 63.9616 25597
-371.854 -1332.77 62.6983 25612
-168.473 -1318.13 61.9273 25617
-215.393 -1264.89 62.8606 25619
-198.809 -1328.85 58.3182 25630
-211.734 -1338.32 61.4065 25633
-185.323 -1314.32 69.9404 25634
-198.143 -1320.93 64.6368 25636
-194.369 -1325.52 62.7648 25638
-210.673 -1346.01 58.3503 25639
-147.923 -1330.48 61.3079 25641
-259.128 -1310.24 63.5124 25643
-245.029 -1312.04 64.2865 25648
-216.732 -1331.1 66.1357 25654
-264.996 -1490.96 63.1654 25726
-254.566 -1489.19 58.941 25727
-271.241 -1479.94 66.9678 25728
-265.905 -1507.15 66.7719 25729
-261.349 -1485.48 69.7615 25732
-252.726 -1496.76 52.8932 25737
-254.661 -1454.65 63.4935 25754
-310.498 -1487.3 65.3956 25759
-170.363 -1393.61 68.6832 25774
-118.569 -1469.15 62.3535 25775
-158.327 -1412.31 71.6649 25778
-181.621 -1409.94 71.9632 25779
-156.422 -1403.2 70.0062 25781
-165.184 -1444.2 62.6153 25788
-240.236 -1552.63 62.2659 25882
-237.481 -1607.88 60.5475 25909
-164.538 -1557.57 69.5025 25926
-177.942 -1608.58 64.5566 25928
-186.168 -1598.45 65.0719 25936
-193.076 -1601.1 66.9451 25946
-193.499 -1579.39 59.8026 25947
-202.123 -1583.27 62.9796 25948
-182.502 -1605.79 70.0921 25950
-207.709 -1587.78 66.1052 25952
-136.607 -1607.13 70.0058 25956
-169.821 -1717.4 64.5595 26080
-89.257 -1703.13 84.8078 26082
-106.147 -1682.43 72.1925 26087
-173.074 -1707.04 62.0459 26091
-75.8096 -1731.38 77.3168 26092
-106.942 -1720.9 70.4354 26099
-81.5558 -1715.65 79.9968 26101
-143.69 -1743.38 64.4937 26106
-132.75 -1733.65 69.5534 26116
-94.8268 -1729.26 77.5105 26117
-391.318 -1142.34 57.5192 26150
-367.837 -1132.31 55.8887 26151
-313.544 -1107.67 55.2811 26173
-316.357 -1091.94 54.7262 26180
-139.964 -988.115 81.6313 26192
-142.967 -1011.5 77.9437 26193
-129.38 -1012.11 81.2285 26195
-142.968 -1011.91 79.1545 26196
-180.921 -1047.8 77.0698 26197
-141.997 -996.379 85.9701 26201
-154.851 -990.635 75.5946 26204
-175.018 -1040.29 78.1057 26209
-147.54 -997.88 84.0789 26210
-199.655 -1012.81 74.8065 26212
-163.146 -1004.77 69.8572 26213
-140.613 -996.837 79.0417 26214
-310.701 -1261.17 60.5653 26260
-164.117 -1149.18 66.5489 26314
-156.717 -1202.12 77.6976 26321
-127.959 -1144.71 66.7462 26329
-170.133 -1344.73 61.8872 26397
-173.961 -1328.3 61.4302 26400
-152.792 -1234.32 70.0472 26406
-77.7224 -1253.76 70.7217 26420
-120.11 -1323.88 66.9969 26421
-79.0938 -1282.54 71.0939 26431
-92.7004 -1278.31 75.6362 26436
-80.6734 -1243.17 69.64 26437
-93.2481 -1278.34 76.634 26443
-99.6654 -1317.93 77.4321 26444
-159.108 -1466.7 62.1738 26499
-112.649 -1470.95 62.1842 26503
-153.107 -1406.95 63.0808 26508
-137.909 -1465.25 59.8438 26511
-135.677 -1379.04 71.2954 26512
-149.902 -1400.18 68.8068 26514
-161.692 -1437.48 67.4644 26520
-21.0791 -1406.69 79.4296 26525
-39.948 -1335.89 73.4898 26536
0.772973 -1375.93 81.8301 26539
6.07849 -1402.82 81.741 26543
-4.28811 -1394.87 77.515 26551
-13.3876 -1381.23 80.2977 26553
-99.0009 -1534.23 63.4295 26611
-107.044 -1523.57 60.0493 26614
25.8005 -1503.25 75.6169 26645
23.2488 -1494.5 81.9738 26650
36.1216 -1528.65 77.7372 26670
-17.3164 -1558.72 80.9473 26673
71.4387 -1565.52 82.9042 26767
-5.41311 -1626.82 69.8819 26773
5.75338 -1599.17 78.9546 26776
34.0164 -1578.75 81.9777 26787
45.8725 -1585.48 73.7376 26793
-85.239 -981.406 80.6356 26893
-106.045 -977.386 93.6074 26896
-91.0695 -986.258 78.8951 26900
-137.453 -978.271 88.6427 26910
-147.3 -988.306 85.8278 26919
-218.861 -1109.19 74.2691 26980
-149.076 -1131.02 77.5675 26987
-181.247 -1139.79 74.0393 26988
-66.0967 -1143.65 97.1374 27012
-84.5155 -1200.02 80.1238 27092
16.473 -1214.26 93.4912 27114
32.046 -1223.49 94.5194 27117
26.6121 -1226.37 91.0842 27126
13.5438 -1226.27 86.7321 27128
12.7027 -1205.46 97.883 27135
-321.13 -959.426 65.781 27525
-267.44 -970.905 81.0589 27560
-220.688 -926.121 77.8793 27568
-224.809 -933.541 77.4115 27571
-238.002 -899.515 74.6588 27574
-263.043 -984.486 69.2458 27578
-233.743 -912.569 76.3831 27586
-234.852 -910.453 73.5669 27591
-151.669 -830.777 77.4506 27601
-193.763 -856.461 76.1233 27602
-151.393 -830.862 79.3841 27604
-154.653 -775.298 76.6014 27609
-136.868 -1017.33 76.935 27708
-12.2805 -920.339 95.7795 27713
-31.4578 -932.502 100.956 27714
-14.3928 -930.489 87.9313 27715
-5.19949 -930.571 90.021 27719
-55.8618 -975.905 82.3107 27724
-16.1359 -917.56 102.043 27725
-43.9138 -914.784 89.8446 27739
-15.714 -925.184 91.5169 27742
-57.5297 -1097.03 98.6022 27801
2.75195 -1061.19 108.273 27829
21.8924 -1028.58 85.2866 27832
10.0288 -1104.69 108.21 27843
10.4762 -1105.37 109.768 27847
42.4767 -1139.04 108.35 27938
33.7416 -1144.82 107.294 27950
51.547 -1125.61 112.136 27958
38.8969 -1125.27 112.944 27976
-432.13 -820.835 90.9213 28232
-377.935 -671.845 88.7978 28276
-397.22 -683.469 83.0913 28279
-378.788 -675.999 77.9966 28287
-273.576 -589.701 76.46 28310
-265.726 -589.151 80.1383 28317
-325.557 -609.252 83.0617 28318
-356.423 -656.093 72.2778 28321
-321.651 -609.178 88.8432 28324
-318.998 -556.236 72.3431 28327
-330.617 -655.993 100.956 28328
-336.565 -666.893 75.7414 28333
-307.037 -632.104 75.7647 28337
-245.57 -561.104 85.0963 28350
-229.897 -431.955 88.4225 28351
-245.61 -560.496 84.1244 28353
-221.525 -449.282 75.7074 28354
-244.276 -426.576 89.5028 28356
-212.682 -516.695 90.3894 28361
-252.398 -416.03 93.1533 28365
-242.808 -431.053 79.7305 28367
-251.031 -435.591 91.7922 28370
-257.28 -557.278 85.6813 28376
-242.621 -416.383 80.313 28379
-251.619 -543.323 87.2335 28385
-278.154 -818.049 71.3805 28433
-261.77 -818.079 73.9434 28436
-288.051 -846.607 70.9382 28437
-297.298 -877.346 93.3905 28445
-320.669 -748.761 68.5785 28465
-192.653 -751.223 70.7885 28470
-196.794 -758.787 68.9469 28477
-217.615 -691.172 77.7366 28478
-215.68 -692.845 70.7876 28483
-210.396 -703.537 68.9464 28489
-156.558 -556.22 74.9362 28507
-161.275 -610.012 81.6493 28512
-160.571 -609.738 78.2886 28514
-124.335 -575.476 73.8865 28521
-151.895 -550.852 89.4405 28522
-145.515 -533.378 83.705 28523
-140.694 -557.202 71.2906 28529
-154.346 -557.122 77.0524 28531
-127.847 -584.581 76.8152 28533
-125.569 -593.564 73.3644 28534
-220.165 -929.435 84.593 28582
-234.708 -908.232 70.9754 28593
-259.481 -882.892 72.1418 28596
-167.368 -797.437 66.1775 28607
-109.179 -878.225 78.979 28608
-60.931 -781.214 82.3851 28609
-126.801 -735.249 62.8217 28618
-13.6585 -636.876 74.5774 28639
-13.8761 -643.208 73.4879 28641
6.26625 -651.948 78.4041 28642
-26.1637 -651.914 81.0052 28645
-33.57 -661.566 82.5672 28646
-47.1353 -713.054 71.188 28647
-20.0401 -701.061 84.2706 28651
-19.4037 -630.792 76.0728 28655
-27.4127 -708.42 76.0433 28656
-54.3063 -1018.34 80.4305 28715
-54.7949 -1020.98 87.99 28717
-60.1525 -1016.74 86.0261 28721
-112.275 -939.251 99.182 28730
48.5783 -889.232 80.8195 28740
34.8126 -884.99 87.0768 28747
-36.2688 -883.315 86.2547 28758
123.19 -760.641 83.1802 28770
133.215 -769.985 82.5704 28777
74.3512 -826.976 81.0534 28779
72.499 -772.784 74.7406 28784
100.436 -762.886 83.5395 28788
67.401 -824.281 83.5283 28792
63.1928 -835.749 78.2563 28793
75.3081 -776.989 80.4634 28794
45.7829 -825.611 83.058 28795
58.9116 -825.874 79.1769 28803
81.6975 -1075.71 98.6968 28857
129.44 -951.132 92.5746 28865
115.206 -1010.23 97.2895 28867
115.045 -1000.35 97.0844 28872
126.344 -1039.54 91.0439 28874
121.431 -1003.26 88.9214 28876
122.495 -1033.8 90.0037 28879
128.172 -1015.45 90.381 28887
94.3546 -1006.67 93.2718 28900
188.106 -905.838 81.3348 28905
201.072 -900.049 81.4027 28906
175.922 -894.813 79.3268 28914
153.097 -902.609 85.576 28915
176.349 -882.804 81.8687 28916
173.421 -888.135 82.0755 28919
194.778 -898.648 93.4116 28922
193.359 -905.179 80.937 28923
193.765 -898.519 97.449 28924
221.008 -883.326 90.7976 28925
113.373 -875.688 79.4791 28926
168.939 -903.96 81.2785 28930
196.092 -906.799 76.751 28931
-371.791 -655.426 85.6149 29258
-335.312 -666.439 79.5418 29261
-375.82 -650.776 89.3693 29272
-259.801 -583.437 84.6985 29286
-247.123 -607.195 89.0059 29288
-265.346 -588.064 69.9067 29293
-191.909 -423.237 82.4268 29302
-182.905 -426.506 81.2655 29309
-232.578 -382.385 91.9979 29320
-260.328 -835.276 80.9033 29356
-198.303 -789.987 78.808 29358
-189.966 -769.894 70.0008 29366
-228.302 -833.864 77.1836 29374
-233.523 -684.405 71.0121 29381
-47.1561 -520.384 75.4098 29407
-147.84 -531.828 81.1203 29411
-153.234 -550.47 90.9199 29412
-50.3883 -526.659 67.6513 29415
-51.4671 -516.469 80.7105 29417
-74.5779 -519.412 77.6967 29420
-58.0203 -522.838 75.3703 29425
-102.724 -886.283 78.7628 29452
-120.643 -883.733 95.2194 29453
-108.93 -876.98 104.082 29455
-99.8015 -905.734 85.0396 29456
-180.351 -836.783 77.0665 29457
-121.903 -876.464 97.5164 29461
-109.802 -885.582 82.4247 29474
15.1675 -641.057 79.5239 29510
17.8472 -635.491 83.5437 29511
7.88283 -567.004 74.8016 29514
8.95075 -565.069 82.2274 29516
22.9567 -636.56 64.8457 29523
8.17119 -567.28 75.3093 29530
68.0334 -630.132 82.787 29531
24.1682 -587.061 79.6492 29532
-1.78061 -583.832 72.0915 29533
16.7911 -637.572 79.5664 29535
11.1321 -628.304 80.8929 29536
12.717 -899.364 82.4953 29583
111.747 -812.648 89.4074 29597
60.0688 -827.721 79.5325 29598
152.206 -762.628 82.0145 29609
130.065 -764.878 66.5448 29612
139.809 -773.628 81.4324 29617
195.16 -701.294 88.9436 29618
94.8224 -699.579 80.901 29619
127.565 -755.649 88.2027 29621
144.757 -765.35 74.2244 29622
111.269 -701.893 87.5166 29625
135.432 -753.259 87.8331 29628
129.499 -644.616 72.9138 29629
136.141 -1019.09 76.3286 29679
123.124 -1014.18 92.5515 29689
167.441 -962.878 90.9565 29694
162.374 -959.168 93.3167 29697
103.011 -899.24 83.2666 29698
131.162 -941.464 98.5495 29699
175.607 -889.724 85.8994 29700
162.573 -945.63 97.6555 29704
103.251 -906.174 82.2065 29706
154.765 -960.556 85.6667 29709
233.752 -802.254 79.4841 29715
202.326 -809.137 79.6149 29716
269.138 -791.042 82.4305 29719
225.813 -802.174 79.2585 29721
279.636 -791.459 85.2567 29722
236.151 -811.129 81.1751 29732
188.898 -829.578 90.784 29733
221.887 -764.601 82.3289 29735
196.539 -813.6 71.2733 29737
276.752 -784.111 93.8995 29749
-263.213 -648.967 79.5233 29921
-182.5 -359.291 76.4898 29954
-178.556 -397.305 79.799 29955
-201.121 -723.4 81.0131 30002
-187.607 -767.935 80.461 30005
-200.889 -726.226 82.5388 30007
-197.973 -760.426 79.939 30010
-195.595 -725.823 74.1659 30013
-190.213 -778.114 79.041 30017
-147.685 -542.818 83.5447 30028
-51.0575 -837.371 87.5504 30117
-7.1829 -788.587 77.8159 30127
-77.6311 -857.961 91.1427 30137
-81.3416 -813.753 78.4742 30141
15.4493 -748.487 83.9492 30151
-21.828 -698.324 80.1256 30155
-24.2036 -705.045 75.0272 30161
-53.7355 -674.584 69 30164
22.1043 -749.332 82.5865 30166
-19.5539 -640.592 81.8299 30168
49.7156 -504.72 80.8367 30174
135.48 -552.469 81.0863 30175
38.3806 -505.67 89.341 30176
112.101 -617.912 84.5153 30178
43.7431 -892.22 82.1411 30233
44.7447 -878.951 80.54 30238
13.9457 -882.576 86.4978 30246
60.2301 -827.171 86.0389 30247
73.05 -879.6 93.4402 30248
95.1316 -769.157 74.4951 30255
107.019 -781.065 74.225 30257
93.2869 -762.265 83.7782 30258
129.8 -699.761 80.7407 30261
71.0159 -762.67 80.4138 30269
156.039 -645.961 81.1735 30284
150.421 -630.374 87.731 30285
180.053 -659.863 76.4856 30286
256.466 -629.709 85.8696 30290
192.072 -663.171 78.1678 30291
158.984 -630.122 88.1883 30293
218.022 -601.526 78.311 30299
215.994 -715.903 87.2199 30306
202.045 -949.513 89.9026 30351
324.145 -704.693 93.5492 30374
308.096 -765.031 84.6032 30375
244.653 -725.274 88.9229 30379
309.883 -759.851 92.1409 30380
338.187 -715.033 88.3909 30385
296.637 -644.837 92.7009 30388
298.706 -650.866 80.2415 30389
315.771 -762.72 88.7716 30390
302.532 -763.368 91.7172 30395
250.451 -728.144 82.2351 30396
-214.471 -446.958 75.9639 30485
-248.268 -772.899 78.1579 30515
-264.397 -777.232 79.3338 30519
-267.968 -766.368 75.8856 30527
-108.566 -675.958 78.1795 30539
-145.155 -522.613 84.8208 30572
-149.476 -507.762 79.975 30574
-147.665 -510.239 77.5602 30577
-160.169 -553.196 95.3459 30584
-155.922 -513.16 88.7991 30585
-131.545 -528.713 76.5663 30589
-0.866779 -387.103 91.0802 30590
-90.3838 -347.863 86.7497 30592
-141.078 -441.471 73.3227 30607
-67.3681 -672.211 81.7109 30649
-14.5774 -694.782 77.2049 30650
-96.9508 -715 74.1708 30653
-60.2478 -665.291 74.0999 30654
-73.3232 -673.011 83.6958 30655
-68.4553 -716.849 73.4195 30660
-65.6688 -665.216 79.8476 30663
-100.046 -756.041 76.0463 30669
-39.0188 -623.784 76.2888 30676
14.0825 -550.34 74.9954 30682
31.6881 -417.635 85.9877 30691
28.2811 -415.121 91.4146 30698
7.09656 -511.372 85.6208 30720
59.4522 -757.958 82.4288 30747
61.5824 -751.918 89.8134 30748
94.1383 -750.611 83.2712 30750
44.9627 -803.6 83.5205 30751
44.3482 -803.475 81.6364 30752
53.4003 -749.559 84.0699 30754
69.685 -738.387 89.5556 30755
67.0782 -752.602 85.2834 30756
90.5061 -857.217 85.5236 30757
96.0192 -671.722 69.6092 30766
94.2844 -674.463 83.1122 30767
108.152 -644.619 80.3976 30768
82.1816 -686.261 84.2233 30771
95.1712 -682.387 92.6633 30772
122.516 -700.897 84.8726 30776
136.825 -690.541 84.5841 30777
90.113 -690.115 85.0324 30780
116.109 -621.77 82.0745 30783
230.362 -521.324 84.4366 30792
226.604 -569.336 91.2364 30796
245.008 -567.951 86.6828 30797
183.926 -514.228 90.0857 30807
224.505 -524.75 86.859 30821
184.556 -785.828 77.2144 30848
241.63 -681.248 82.363 30865
216.648 -724.481 85.4009 30868
238.898 -717.312 84.4639 30877
251.099 -733.753 77.8971 30883
299.961 -558.112 87.6044 30893
283.998 -597.539 82.9789 30896
356.972 -894.741 92.844 30964
314.787 -889.843 95.2552 30966
341.381 -893.721 93.3974 30970
350.552 -894.425 98.7822 30974
337.672 -892.571 98.5797 30979
312.889 -873.996 95.2611 30990
362.218 -819.776 94.3999 31007
389.407 -830.847 98.745 31014
341.935 -819.684 90.477 31015
403.427 -770.869 88.8645 31017
363.087 -760.686 90.9857 31024
390.143 -838.859 86.5318 31035
417.809 -593.261 90.335 31051
409.595 -674.896 90.2026 31052
406.586 -706.93 96.4177 31053
467.879 -729.155 97.1943 31054
470.042 -686.024 98.7411 31055
468.013 -686.382 99.4239 31062
469.234 -679.716 100.404 31064
402.674 -683.083 87.276 31065
448.679 -644.842 101.881 31068
456.769 -730.094 104.203 31075
383.615 -663.678 87.7023 31078
422.159 -709.078 97.8337 31079
-200.167 -760.307 68.9909 31092
-277.182 -741.743 74.3644 31097
-190.798 -739.686 70.0469 31102
-245.873 -561.916 86.673 31111
-250.827 -572.37 81.7101 31130
-211.45 -437.747 78.1898 31152
-134.915 -496.161 79.4158 31160
-176.436 -295.178 85.2118 31165
-166.886 -295.132 87.581 31166
-122.59 -350.977 88.8445 31168
-172.122 -337.199 86.108 31175
-46.6651 -324.71 97.3247 31183
-96.8423 -783.077 75.7503 31198
-96.1026 -766.645 68.4628 31215
-72.829 -786.944 79.1326 31221
-44.0687 -510.156 80.7128 31247
-27.4424 -504.827 75.0142 31257
-36.85 -541.434 75.3542 31269
-14.3546 -366.253 89.239 31280
-15.1705 -374.383 90.0831 31284
41.4788 -380.063 93.397 31291
38.556 -371.752 90.0734 31293
39.0177 -382.893 88.8291 31299
-26.4307 -338.297 86.2258 31302
27.6508 -415.009 101.359 31303
37.5382 -412.79 91.9009 31304
37.4874 -419.675 77.2318 31306
12.9514 -798.855 80.3924 31318
48.3362 -697.307 81.5631 31332
63.0737 -690.44 72.3531 31336
41.7261 -693.439 84.9849 31339
69.2594 -693.18 66.4732 31340
86.0292 -625.945 84.3198 31347
88.6844 -632.541 77.8045 31350
111.838 -575.817 76.0014 31351
117.577 -562.694 93.4729 31355
200.375 -428.892 99.2671 31382
199.362 -439.872 101.703 31384
167.072 -440.573 99.0147 31386
170.775 -425.064 94.3312 31389
201.096 -444.819 93.7692 31398
183.713 -442.305 92.4523 31399
111.929 -429.398 92.9066 31400
113.378 -428.478 89.3548 31402
210.938 -704.933 86.4508 31429
235.363 -810.501 76.117 31430
239.332 -782.325 86.5896 31432
247.464 -791.393 74.1973 31434
171.266 -777.615 77.2581 31435
220.937 -777.202 77.1281 31438
209.552 -712.653 84.8719 31440
187.108 -777.256 81.3844 31441
165.367 -766.371 73.7552 31443
178.707 -769.97 72.7061 31444
229.987 -802.261 82.4347 31445
185.989 -700.5 85.0859 31450
228.58 -645.977 87.3712 31459
240.096 -650.091 82.7726 31461
282.269 -649.667 75.7558 31462
236.4 -635.497 85.4237 31463
294.146 -656.943 81.6048 31477
313.312 -507.713 104.265 31482
320.016 -510.562 93.2195 31484
310.984 -472.264 96.3283 31486
311.965 -472.894 100.626 31488
307.616 -453.722 108.146 31489
307.315 -518.022 82.1489 31491
263.082 -450.693 100.763 31493
306.782 -521.298 88.1877 31499
335.779 -763.395 90.7036 31536
367.531 -821.415 83.2701 31543
366.624 -819.462 83.4493 31549
337.124 -679.137 89.6696 31563
331.362 -671.485 93.6452 31566
343.819 -713.569 87.8868 31567
328.892 -687.075 90.3612 31568
379.948 -497.152 101.712 31581
371.084 -527.232 95.3733 31583
464.176 -519.04 108.547 31587
411.571 -545.678 95.3875 31589
435.259 -592.587 102.452 31601
455.562 -559.238 95.7659 31609
449.902 -565.422 96.7543 31613
455.762 -538.455 97.2496 31615
474.268 -828.859 85.7094 31680
450.824 -810.303 97.9523 31686
534.681 -729.317 111.285 31708
517.006 -779.119 98.3167 31713
525.365 -607.621 101.54 31742
529.579 -601.048 107.542 31745
539.521 -609.148 99.0507 31754
535.321 -636.112 112.191 31758
-177.486 -418.991 84.2356 31807
-204.534 -429.67 79.3349 31812
-205.961 -429.863 76.2597 31815
-103.097 -436.578 82.0721 31820
-106.111 -278.678 93.8019 31824
-183.332 -292.565 91.0636 31825
-129.255 -279.927 97.9791 31826
-177.18 -279.426 88.9624 31827
-183.164 -285.44 87.0222 31828
-177.26 -287.646 85.562 31831
-98.8354 -279.003 86.3934 31832
-180.749 -306.525 89.5948 31834
-172.549 -288.493 90.1824 31835
-173.835 -310.104 85.8225 31836
-196.5 -291.121 86.3243 31837
-173.97 -279.326 82.3245 31843
-198.925 -295.214 89.0369 31846
-117.401 -289.682 95.8106 31853
-116.341 -290.477 99.0462 31854
36.8298 -494.004 88.6936 31907
10.6607 -547.483 77.251 31925
-11.3775 -372.806 99.3733 31930
-9.03619 -306.082 95.0716 31931
-6.3678 -302.722 93.3746 31933
-28.6866 -324.911 90.0098 31935
-11.4508 -304.073 97.2992 31937
-33.7357 -323.28 97.7711 31938
186.081 -502.833 90.4026 31977
94.8384 -497.502 92.4168 31980
119.471 -500.293 87.2398 31982
116.348 -512.444 84.5929 31985
163.128 -530.334 91.7692 31987
154.286 -531.099 95.7219 31988
134.63 -372.824 98.3076 32011
106.951 -424.034 98.4083 32012
102.306 -388.526 99.1315 32016
193.87 -375.034 106.421 32023
291.301 -572.397 90.9944 32085
251.215 -392.914 104.349 32097
256.658 -394.663 96.0721 32105
321.343 -440.993 102.665 32106
331.679 -449.507 106.441 32108
260.975 -397.755 104.605 32110
456.497 -561.622 96.507 32177
434.095 -547.066 101.531 32182
439.374 -559.671 97.7449 32193
391.268 -410.468 110.312 32199
388.764 -417.961 109.872 32201
396.144 -405.265 113.92 32203
407.263 -453.856 110.522 32207
397.461 -415.414 113.914 32216
412.427 -430.157 116.817 32219
447.264 -492.616 104.985 32228
481.77 -414.543 123.487 32231
424.213 -405.859 113.338 32233
466.283 -502.773 113.29 32234
-245.835 -424.532 92.1911 32400
-249.529 -462.692 82.4413 32403
-248.416 -432.154 92.3387 32411
-251.126 -386.533 97.2959 32415
-258.445 -449.184 90.3317 32418
-260.346 -428.357 84.8686 32422
-260.573 -378.705 94.7854 32432
-232.186 -297.678 94.4141 32433
-257.822 -319.387 98.997 32441
-237.659 -328.908 89.7786 32443
-259.258 -263.56 94.2787 32446
-245.269 -327.782 99.613 32447
-250.481 -264.303 93.1954 32450
-243.41 -327.088 95.6147 32452
-34.5046 -407.839 80.4284 32524
-114.28 -440.103 64.3235 32540
-31.5649 -258.955 95.1061 32553
-31.3491 -301.967 86.2573 32555
-111.729 -308.686 84.4772 32561
-36.0924 -267.272 95.0854 32562
51.7605 -448.216 88.0628 32616
105.151 -445.133 83.0771 32622
109.505 -447.872 93.7612 32625
51.2561 -494.411 90.5769 32634
100.186 -455.608 83.0883 32638
55.9263 -383.823 91.1081 32647
54.524 -276.725 104.513 32661
217.009 -436.959 100.389 32723
203.518 -435.918 95.342 32725
183.079 -428.57 90.463 32730
226.146 -352.669 108.286 32736
190.03 -289.262 114.521 32737
267.48 -368.209 99.677 32757
288.284 -308.431 126.474 32759
348.15 -472.806 95.4271 32828
388.918 -488.182 103.935 32836
321.563 -490.645 89.4665 32839
362.652 -350.409 115.792 32853
366.775 -371.12 116.928 32856
338.492 -338.398 108.737 32860
431.408 -322.619 130.498 32863
345.04 -369.419 113.776 32865
400.086 -414.566 105.715 32867
402.323 -419.587 102.832 32869
426.06 -320.94 116.51 32873
414.662 -366.922 124.473 32875
329.357 -335.841 109.615 32877
-383.704 -397.094 79.4444 33017
-245.826 -372.522 95.4496 33031
-240.213 -329.626 110.949 33033
-269.711 -195.901 96.5733 33060
-336.328 -143.693 99.0196 33069
-276.803 3.37303 104.24 33096
-269.684 -2.57588 95.337 33099
-244.402 -4.65455 108.693 33101
-270.158 19.1654 98.0288 33102
-273.231 19.2386 109.067 33106
-347.795 13.0362 97.1889 33107
-251.482 -57.5491 112.928 33108
-225.798 2.72505 108.408 33112
-269.469 5.0325 103.403 33114
-267.808 18.0518 102.833 33118
-177.427 -376.2 97.3728 33166
-196.516 -292.533 90.9976 33170
-181.343 -276.887 68.3617 33176
-89.125 -384.38 88.9456 33180
-121.924 -180.174 98.3881 33183
-119.177 -186.993 87.5983 33199
-72.8431 -181.356 95.2056 33206
-106.794 -254.854 109.221 33209
-115.944 -175.177 89.0699 33213
-104.22 -139.318 90.1475 33216
-87.8402 -204.877 90.6891 33221
-49.2121 -6.52521 110.779 33226
-57.4402 -8.4805 105.452 33227
-78.1828 -50.5024 109.601 33233
-67.5197 -9.60523 115.745 33235
-161.556 -103.031 102.94 33246
-173.421 13.5393 111.19 33247
-105.506 -102.015 101.343 33248
-63.5911 -45.1525 104.82 33252
-166.911 -58.5127 98.1822 33262
-1.53687 -386.887 89.1662 33299
55.4443 -396.343 97.0451 33305
-20.2838 -345.918 90.4712 33306
-15.107 -390.382 85.4163 33312
42.9937 -176.658 99.5375 33325
52.9763 -257.496 100.462 33329
65.6352 -211.387 97.4264 33334
35.1234 -190.034 98.4016 33354
-23.192 -8.76427 111.132 33356
-10.5346 -10.2891 112.893 33361
92.5106 -76.2496 116.865 33363
92.1444 -78.2065 115.237 33364
81.1408 -120.889 101.125 33366
-35.4683 -120.174 94.3288 33367
74.7498 -40.9851 106.795 33380
101.734 -60.6923 110.803 33382
98.7973 -52.6186 118.304 33389
84.0143 -70.9019 120.582 33390
233.565 -207.411 116.951 33452
132.396 -220.146 99.7375 33453
148.426 -189.873 108.522 33455
152.794 -208.745 101.58 33461
142.556 -193.782 111.316 33462
201.515 -210.206 103.525 33463
149.142 -202.689 110.501 33466
199.928 -208.787 103.839 33467
140.865 -216.317 100.662 33470
214.646 -270.602 118.608 33472
120.102 -274.347 111.841 33473
149.478 -201.818 101.429 33474
192.151 -203.441 116.336 33477
193.822 -184.636 116.296 33478
205.077 -254.867 118.027 33482
201.176 -272.098 119.779 33484
237.914 -132.724 115.39 33500
147.095 -67.4341 117.76 33501
143.276 -78.0554 115.209 33504
146.686 -117.544 111.386 33506
191.208 -139.51 122.731 33514
220.104 -151.54 118.751 33516
228.972 -142.104 117.049 33519
136.32 -76.7614 119.798 33524
354.183 -371.94 118.495 33560
245.881 -393.203 108.683 33562
302.075 -365.65 116.534 33573
267.447 -209.014 113.757 33585
356.657 -225.708 109.521 33590
261.235 -231.258 113.156 33592
267.129 -226.648 114.93 33593
362.083 -271.789 122.754 33594
269.9 -230.368 109.621 33595
267.297 -262.482 122.238 33601
336.606 -313.001 112.126 33602
351.572 -207.381 114.387 33604
352.108 -309.399 118.125 33606
299.255 -100.612 130.244 33625
290.708 -89.7988 134.101 33628
362.667 -104.366 128.118 33629
275.239 -146.396 120.853 33634
279.657 -139.596 121.133 33636
363.182 -145.63 120.274 33639
335.01 -104.512 127.343 33642
358.683 -99.9927 139.627 33646
353.226 -181.278 124.281 33650
351.911 -108.635 125.1 33654
368.613 -78.3689 145.523 33655
361.301 -135.604 126.362 33659
354.092 -103.662 134.328 33660
282.898 -128.633 123.233 33663
430.185 -188.174 136.122 33757
428.842 -194.092 131.611 33758
433.288 -194.265 131.526 33759
425.595 -86.5112 142.089 33764
432.866 -144.135 131.343 33767
414.798 -142.993 133.342 33769
-351.12 -382.11 99.7979 33796
-366.356 -387.542 101.743 33804
-375.874 -232.576 94.7493 33837
-366.376 -267.16 93.8605 33838
-338.075 -239.009 87.2274 33851
-387.325 -190.755 88.1681 33878
-396.594 -116.689 109.706 33894
-384.734 -182.04 92.5046 33899
-377.657 78.7062 102.339 33903
-351.645 68.2467 99.1542 33909
-426.454 -37.5585 108.207 33911
-410.119 -33.7634 101.307 33914
-397.273 65.1562 95.5492 33919
-427.619 52.4523 103.453 33922
-367.018 76.5496 101.44 33932
-361.331 57.8618 99.3479 33935
-421.799 19.5028 98.7374 33939
-262.101 -390.983 100.918 33942
-181.855 -397.748 79.3288 33945
-261.198 -387.889 96.5315 33957
-163.853 -380.21 99.4116 33966
-219.476 -295.558 86.7229 33977
-226.256 -321.385 90.5382 33981
-213.538 -253.357 93.299 33986
-204.464 -188.083 95.1607 33990
-210.049 -193.555 86.3859 33996
-195.086 -105.635 104.706 34005
-250.728 -103.05 90.6343 34006
-203.302 -191.173 95.2569 34008
-171.978 38.6521 107.921 34025
-199.955 -41.1621 105.169 34026
-166.118 -40.4159 103.406 34029
-101.534 -274.734 91.9986 34068
-122.257 -277.397 94.7835 34078
-0.693976 -267.851 99.3798 34084
-122.529 -188.017 96.4495 34091
-124.157 -198.918 89.7475 34107
-43.2487 0.0374358 109.727 34118
-83.3915 52.0307 108.649 34120
-93.8602 45.4435 109.166 34121
-32.8302 -69.1068 107.667 34132
-44.3887 -58.2444 110.367 34134
-45.1665 -68.7185 108.462 34137
136.785 -354.462 98.6487 34167
95.9965 -284.409 96.4325 34182
96.3455 -285.436 95.5085 34185
54.9171 -312.58 97.6576 34186
144.445 -190.212 102.052 34208
95.2945 -1.84952 115.517 34232
92.1098 -9.45112 122.791 34233
107.889 -52.3409 114.104 34239
111.45 -8.90015 109.735 34244
280.857 -321.247 116.125 34287
285.288 -127.423 119.965 34314
267.725 -70.7205 131.122 34320
272.895 -42.3947 130.578 34330
263.73 -40.0948 138.144 34337
274.058 -58.0747 120.408 34340
442.054 -275.669 126.85 34376
348.38 -317.58 117.811 34378
427.259 -322.635 124.03 34379
388.657 -270.02 119.953 34381
356.982 -307.075 113.564 34387
415.114 -320.11 125.686 34391
345.455 -185.007 118.614 34398
425.885 -195.334 132.998 34401
339.625 -181.409 125.395 34405
350.502 -187.035 118.479 34406
369.011 -142.255 122.362 34409
390.069 -179.348 117.568 34412
412.539 -15.6147 152.258 34421
430.962 -9.29131 149.187 34442
-348.54 -82.3105 95.2779 34501
-382.074 81.0019 97.048 34514
-379.894 100.925 104.685 34515
-394.961 84.3414 107.859 34517
-402.301 112.376 109.727 34520
-392.47 91.9303 109.792 34521
-375.342 83.9311 104.927 34534
-170.236 -337.203 89.302 34538
-188.51 -365.478 112.045 34540
-186.203 -357.448 104.512 34546
-243.52 -367.499 113.097 34547
-293.072 -293.177 89.3882 34569
-200.055 -66.7888 98.1609 34582
-221.757 109.693 101.772 34600
-169.917 4.65754 105.513 34601
-221.709 76.3549 100.043 34604
-231.712 99.1601 104.256 34608
-294.14 -3.42606 97.1592 34614
-181.727 101.261 119.323 34622
-121.104 -180.337 103.332 34647
-129.966 -207.874 97.6623 34649
-128.089 -191.579 102.19 34651
-38.4622 -139.029 100.384 34663
-36.8306 -132.415 94.2805 34664
-143.125 -61.3414 93.7197 34672
-141.574 -45.5478 99.7992 34677
-34.8743 -142.918 95.0857 34681
-66.7504 -29.2284 100.391 34687
-141.566 74.6097 111.955 34695
-135.839 48.7583 108.16 34697
-35.0056 93.9918 120.347 34700
-74.0801 99.1615 114.146 34702
-137.443 37.8056 111.459 34710
96.7937 -226.895 101.685 34745
136.756 -215.176 105.114 34746
46.9036 -127.13 105.919 34760
67.2378 -33.8848 109.973 34786
24.7311 -11.1781 110.225 34793
19.3365 69.3797 111.219 34794
20.4467 -10.9288 116.91 34795
110.694 64.701 117.958 34796
113.231 68.0752 114.256 34797
21.2538 -6.94514 116.562 34811
178.919 -190.299 110.542 34848
219.139 -273.431 135.475 34853
186.823 -182.537 117.84 34854
206.008 -195.173 112.517 34855
286.017 -203.066 125.349 34860
199.748 -187.886 116.534 34861
303.178 -246.932 126.012 34864
292.702 -176.035 124.382 34866
293.322 -116.545 121.815 34867
225.849 -141.316 107.562 34868
191.638 -139.56 122.91 34869
272.738 -117.655 130.968 34874
278.391 -132.342 126.532 34881
175.863 80.6017 137.74 34882
198.47 68.3783 115.765 34906
252.53 33.4445 128.441 34909
349.058 -241.343 112.18 34955
320.052 -119.46 116.96 34967
373.871 -110.958 126.221 34968
322.519 -109.627 116.918 34969
330.401 11.6165 131.999 34987
364.922 27.3871 154.681 34990
327.052 30.9222 123.011 34996
326.212 2.661 134.134 34997
413.843 30.2221 153.064 35001
-299.902 -157.156 99.8094 35051
-305.395 -160.962 105.834 35053
-285.083 -165.897 85.0007 35061
-290.334 -161.431 100.265 35066
-295.944 -170.613 95.1008 35067
-299.577 -70.4951 114.138 35083
-314.83 144.482 106.952 35107
-378.151 122.91 108.099 35108
-393.541 128.482 111.525 35115
-397.563 115.312 78.5386 35119
-382.957 134.804 96.0579 35120
-397.032 126.843 110.464 35121
-170.817 -296.065 96.5841 35123
-170.247 -310.542 93.6717 35124
-174.429 -289.062 90.3151 35127
-164.387 -299.779 90.7548 35128
-106.307 -309.381 94.7443 35130
-154.311 -161.113 84.5251 35157
-247.381 -161.059 91.2908 35164
-120.181 -198.75 95.7925 35168
-147.651 8.37123 101.85 35170
-155.941 3.23962 109.726 35172
-216.801 67.9936 103.692 35188
-142.851 149.262 119.645 35191
-144.852 40.1044 116.196 35198
-183.873 151.778 115.275 35202
-232.246 148.377 104.867 35204
-235.455 146.675 105.954 35205
-142.236 142.275 117.242 35209
-153.106 133.855 111.552 35210
0.451225 -267.066 104.562 35228
3.3659 -261.416 105.454 35230
37.8739 -180.431 105.473 35240
42.8096 -170.479 111.407 35246
-73.3304 -158.85 93.5196 35250
27.5417 -167.92 109.361 35251
-0.517675 40.7626 115.882 35298
-72.3117 149.882 120.055 35299
-23.6747 94.4227 119.448 35302
-30.6714 155.828 120.191 35319
-5.72565 90.9442 124.583 35320
93.9809 -216.096 111.325 35358
145.786 -65.5017 115.431 35378
151.049 -88.0252 116.364 35379
165.401 -10.2286 112.659 35392
136.045 -14.5054 120.847 35393
157.909 -77.8163 104.057 35394
176.694 128.299 140.758 35396
114.408 130.287 131.443 35397
137.152 117.037 146.139 35399
145.745 122.944 142.132 35413
94.125 131.369 131.825 35417
154.307 85.5534 131.378 35419
303.005 -104.377 119.818 35461
306.37 -114.437 116.91 35465
281.05 -126.379 118.55 35466
229.297 -143.696 118.672 35467
317.549 12.4557 132.221 35479
263.293 -66.7769 125.303 35483
327.601 11.9462 134.301 35494
246.232 128.228 147.468 35503
273.055 131.825 144.233 35505
307.884 85.4124 143.955 35506
308.577 85.1126 146.22 35507
251.602 141.01 144.569 35508
308.922 77.7755 141.738 35509
265.76 146.945 149.631 35512
302.284 150.027 151.391 35513
301.173 72.972 141.993 35516
299.059 76.6802 151.328 35518
266.131 125.428 145.82 35519
323.666 71.1442 145.905 35525
259.827 130.165 148.282 35533
273.119 123.724 141.63 35534
296.191 126.592 146.158 35535
461.658 -99.4711 133.767 35572
425.302 -149.319 128.877 35573
452.527 -96.144 141.249 35580
446.52 -99.0332 139.067 35581
463.189 -100.221 137.611 35590
462.187 -111.209 129.235 35597
437.907 -18.7569 145.963 35598
473.924 -63.2194 142.91 35602
441.779 -61.4183 146.868 35604
431.194 -24.1823 147.94 35606
466.654 -55.1892 147.687 35607
454.911 25.551 160.999 35608
425.793 152.236 170.426 35631
448.281 99.738 158.165 35634
402.348 91.7379 156.567 35638
462.606 102.84 171.463 35639
-234.41 -306.656 94.7527 35676
-235.429 -302.447 95.1419 35677
-235.726 -302.947 95.4172 35681
-239.832 -293.206 90.9563 35689
-327.673 -164.75 91.7096 35698
-253.779 -153.219 85.0967 35700
-272.04 -176.779 79.6649 35702
-265.178 -162.474 79.4285 35705
-256.499 -114.764 99.9129 35707
-324.268 -163.731 96.6842 35708
-332.364 -158.345 99.1206 35710
-315.671 -153.332 104.655 35714
-350.577 14.2362 95.6738 35728
-311.775 13.0761 95.8057 35734
-330.102 0.847592 101.366 35735
-332.738 1.97738 94.0621 35736
-370.394 158.474 119.782 35757
-109.247 -269.503 94.6413 35778
-117.025 -254.501 89.662 35796
-52.1845 -251.638 93.3375 35797
-100.52 -126.256 84.896 35809
-145.736 -141.747 93.4165 35816
-180.807 23.185 115.673 35824
-171.003 11.3138 106.562 35826
-165.708 14.3383 107.459 35830
-215.059 29.8713 92.6517 35836
-233.838 155.637 109.193 35842
-185.509 157.515 116.356 35846
-225.429 157.044 113.223 35850
64.2752 -211.227 92.6653 35878
46.0425 -116.089 109.821 35892
47.6892 -123.672 92.9152 35893
76.4233 -95.5202 113.786 35904
55.5828 -155.471 107.805 35909
6.29595 20.5806 112.118 35931
-70.1532 149.884 121.695 35935
5.21808 91.3073 131.338 35939
-44.2562 94.1915 126.836 35943
-24.209 161.508 124.539 35951
-43.5421 102.185 117.602 35955
-27.349 103.31 121.501 35956
159.591 -100.6 118.405 35980
157.028 -93.2359 124.346 35987
228.253 -152.007 118.457 36002
167.421 72.0661 124.725 36003
186.408 76.1436 125.87 36004
139.249 -15.1024 119.957 36009
136.919 -14.3329 121.459 36011
117.236 1.84744 111.715 36029
172.003 211.408 149.496 36031
93.468 186.543 138.335 36032
113.931 167.419 130.585 36033
112.942 159.828 139.265 36034
165.389 214.399 153.141 36047
93.5417 186.626 139.168 36049
165.783 220.603 154.895 36050
274.18 85.1351 155.379 36104
331.38 182.387 151.883 36130
236.32 212.686 153.806 36131
332.271 204.819 156.136 36133
263.577 139.912 147.503 36141
294.38 172.821 142.23 36143
494.133 30.1952 159.174 36206
491.561 54.8322 163.134 36212
425.756 249.065 170.684 36232
424.858 242.988 164.008 36233
399.78 198.812 157.729 36241
385.934 242.746 156.821 36259
-296.011 -104.146 102.958 36300
-317.373 -105.726 107.793 36303
-268.239 -111.864 98.9694 36304
-257.382 -162.658 91.5007 36310
-227.628 -78.1917 101.891 36317
-268.788 -153.421 97.2779 36318
-359.639 18.4742 89.828 36320
-296.109 -2.62865 90.6029 36325
-260.865 8.69262 93.6187 36326
-250.008 -12.205 97.6435 36327
-256.625 48.5968 111.64 36328
-407.363 161.082 117.838 36342
-380.683 162.67 115.934 36343
-329.323 194.11 120.037 36345
-348.762 68.1654 102.791 36346
-382.779 170.594 115.314 36347
-326.329 188.711 113.859 36348
-375.12 177.066 105.275 36349
-373.115 180.38 105.28 36351
-374.051 112.226 114.961 36355
-100.303 -125.443 112.392 36388
-109.893 -105.669 96.2607 36400
-86.9796 50.1885 113.052 36405
-93.9006 83.9501 115.781 36406
-135.691 57.3667 117.859 36410
-132.307 37.3147 124.062 36413
-92.0459 44.7947 114.742 36414
-83.3502 52.3807 107.341 36415
-91.6933 44.5351 120.236 36418
-154.631 44.0928 109.601 36420
-87.1176 35.4744 111.68 36421
-137.082 65.5711 111.9 36422
-173.124 14.6967 107.243 36425
-140.481 60.7002 122.489 36426
-175.269 160.33 120.273 36445
94.1373 -29.7026 108.087 36486
91.7393 -8.96881 121.324 36489
84.6393 -97.9759 108.369 36490
102.326 -50.802 110.097 36508
-33.8257 94.92 123.078 36512
-20.5453 73.1297 123.306 36514
58.7792 116.72 127.113 36515
-28.5007 69.6149 121.015 36518
-21.9778 83.6243 123.955 36526
39.2045 34.8031 117.151 36527
-31.1389 226.553 139.411 36537
-63.4858 223.04 131.919 36539
29.251 222.267 142.398 36541
-19.4755 139.441 124.852 36546
-58.7556 212.516 123.916 36550
-31.8639 189.599 124.754 36551
-16.9333 191.716 126.238 36561
145.987 -79.9767 118.688 36584
152.99 -72.9199 117.489 36587
207.988 -54.227 122.417 36591
231.342 27.3961 124.675 36601
199.186 133.11 143.948 36615
119.078 200.746 134.526 36631
101.434 264.691 149.006 36632
99.7165 239.907 138.878 36633
114.835 264.611 152.456 36634
169.139 273.428 162.044 36635
88.4016 265.596 147.751 36636
105.897 245.112 146.31 36637
118.687 268.514 144.987 36642
79.0044 270.595 140.8 36643
96.2522 255.984 153.472 36647
70.7248 267.655 145.052 36651
106.836 260.783 147.053 36654
167.702 267.168 153.363 36658
291.679 122.477 149.236 36714
213.448 261.057 156.387 36729
314.459 261.746 163.581 36736
217.28 263.447 152.387 36738
251.427 285.299 162.399 36741
254.414 284.402 168.448 36742
342.251 216.127 148.58 36748
-260.833 -154.396 87.5335 36905
-295.962 -160.219 92.4701 36906
-344.852 -173.275 93.4513 36913
-360.782 -87.4634 94.2785 36914
-277.517 -165.988 95.2388 36915
-398.092 -110.627 90.3311 36918
-273.843 -184.333 73.2777 36919
-398.658 -72.1374 90.4828 36923
-398.065 -64.2121 89.5268 36925
-449.837 156.383 98.8947 36954
-425.021 159.117 111.466 36957
-473.039 137.095 98.9116 36964
-461.102 168.637 155.896 36968
-399.858 89.0968 101.388 36969
-481.493 120.834 96.8343 36972
-146.689 -50.6103 100.218 37009
-158.067 -55.3827 101.123 37010
-225.549 -65.9999 93.7569 37011
-230.091 -69.3185 103.231 37012
-202.462 -67.0496 94.1336 37019
-147.086 -42.8075 102.714 37024
-116.356 -76.4315 90.4033 37026
-150.52 14.5317 110.32 37039
-245.185 -2.03003 106.417 37043
-221.268 76.2204 101.762 37044
-228.892 2.665 101.201 37049
-224.087 157.045 113.793 37060
-291.611 113.699 107.989 37070
-243.16 158.949 135.391 37077
-242.143 149.789 104.918 37081
-41.7164 -0.258084 113.25 37111
-53.2946 -8.70579 113.784 37113
-31.7845 -69.2446 109.144 37125
-45.7955 -58.4767 107.336 37127
-46.885 -68.7132 104.456 37130
-97.8552 51.2715 92.9879 37144
-85.6617 42.8138 103.092 37154
-116.671 263.307 131.003 37158
-171.887 235.031 132.172 37165
106.556 -12.2122 121.732 37212
156.486 29.7227 115.368 37215
111.975 -7.62776 113.289 37217
101.48 -2.00403 123.094 37221
111.545 17.0119 109.74 37223
148.361 18.719 115.796 37224
176.19 75.0936 137.473 37228
116.781 154.001 137.213 37240
59.4809 116.523 129.125 37244
25.947 160.108 126.86 37246
74.3711 133.047 137.503 37250
106.21 132.338 137.161 37255
144.576 148.976 141.645 37260
56.725 326.106 145.843 37277
-10.5878 308.804 138.14 37283
243.648 41.2213 129.937 37328
228.271 33.0873 124.919 37330
271.761 110.396 133.551 37332
232.813 42.8874 136.529 37334
239.838 48.5821 150.577 37339
233.698 34.6957 133.741 37345
208.593 130.474 139.185 37356
218.237 316.137 160.468 37386
129.356 309.405 155.728 37390
233.199 270.824 165.666 37393
126 350.714 162.42 37394
206.419 256.923 152.274 37396
206.957 316.237 163.764 37399
209.94 321.131 163.273 37400
-439.133 -205.619 90.2207 37531
-462.457 -226.2 73.035 37532
-346.471 -187.423 94.1903 37553
-471.581 -143.408 103.418 37570
-454.46 -132.849 83.746 37572
-420.816 -60.0191 102.871 37581
-442.06 -59.4587 90.0007 37582
-383.45 -101.251 77.3991 37593
-549.614 46.0532 99.9253 37602
-509.734 112.114 97.885 37638
-535.534 148.583 110.523 37643
-548.944 179.913 109.052 37655
-501.355 125.016 91.8427 37660
-578.481 96.649 100.923 37661
-272.702 5.13942 97.6581 37706
-270.727 -93.4673 100.214 37716
-273.488 -4.65169 107.334 37720
-271.239 -1.79971 94.9659 37726
-276.179 113.999 108.616 37728
-301.939 106.799 104.126 37730
-264.766 119.735 116.407 37735
-299.366 99.883 99.2232 37736
-277.238 112.119 106.055 37740
-348.91 234.816 125.338 37752
-327.416 201.001 112.395 37753
-348.84 234.099 143.951 37754
-367.268 290.562 119.064 37755
-326.844 200.385 138.761 37757
-481.782 246.025 103.425 37758
-341.279 239.928 108.466 37760
-348.765 227.29 131.148 37763
-351.686 214.571 158.144 37766
-489.673 244.813 102.997 37767
-383.409 178.599 86.3267 37771
-459.736 245.083 108.069 37774
-337.675 188.733 116.07 37776
-113.497 75.4302 119.577 37809
-177.768 14.0959 103.36 37814
-151.896 -3.846 100.35 37817
-123.093 99.3457 121.255 37818
-175.06 206.799 114.712 37819
-132.62 102.39 116.442 37820
-152.55 166.111 126.783 37825
-243.683 109.446 100.623 37826
-184.018 236.592 124.777 37846
-197.431 229.933 124.053 37847
-204.736 237.441 120.549 37849
-189.425 294.501 123.324 37850
-244.04 325.952 124.308 37852
-189.946 244.051 123.921 37854
-202.997 246.009 118.176 37855
-172.146 237.555 125.327 37856
-187.844 230.944 125.951 37863
-192.264 308.741 124.485 37869
1.85571 40.996 122.386 37903
-26.7181 225.743 134.692 37931
26.1288 162.783 129.798 37933
25.964 163.157 130.33 37935
41.407 198.618 130.427 37938
-4.16375 218.75 146.374 37946
-5.21854 219.328 135.445 37947
-3.5599 219.531 143.754 37948
-133.097 344.015 134.135 37961
-134.351 311.886 144.196 37962
-130.818 281.964 135.442 37968
-40.09 304.742 152.2 37971
-30.0308 313.062 131.742 37974
-36.6268 314.009 148.882 37975
-11.8967 327.469 137.579 37982
191.909 126.347 144.862 38011
197.059 120.218 147.328 38012
156.406 95.4775 145.142 38013
154.357 89.2591 149.524 38014
213.269 126.322 146.036 38015
209.094 120.477 140.288 38023
221.116 108.632 133.457 38025
200.366 120.26 146.914 38027
174.896 88.283 148.311 38031
95.614 215.846 143.891 38034
124.013 281.787 143.98 38036
127.618 298.695 153.835 38037
70.6031 217.214 145.132 38038
183.115 240.656 148.181 38041
82.5039 216.279 142.149 38042
132.722 288.273 147.584 38043
135.301 281.557 144.312 38046
99.7878 207.111 149.463 38049
86.0577 220.219 136.264 38050
178.821 248.067 153.083 38052
42.1968 421.79 161.712 38053
72.366 363.87 157.061 38055
16.7599 340.106 142.029 38058
97.8167 359.92 158.493 38062
95.8784 396.409 161.16 38064
104.674 402.621 162.985 38065
19.7311 367.871 154.65 38066
139.611 355.856 165.414 38069
110.474 354.91 159.81 38073
64.3981 411.257 158.536 38075
43.95 411.331 153.101 38077
73.0232 429.98 157.573 38080
76.5192 419.93 156.897 38086
69.4766 423.527 163.82 38087
262.1 130.507 152.243 38135
221.14 264.864 158.038 38153
207.831 265.003 160.35 38161
148.324 445.199 162.236 38184
172.484 370.694 174.435 38187
173.824 394.267 159.901 38193
-423.399 -208.53 101.575 38221
-484.958 -220.407 73.3084 38222
-424.668 -182.586 109.805 38225
-436.718 -187.307 109.144 38227
-435.975 -181.005 117.026 38235
-501.995 -191.463 74.7987 38237
-411.508 -182.942 110.255 38245
-529.862 -60.0153 103.363 38254
-559.971 -64.9841 93.2225 38256
-512.069 -173.174 97.6708 38257
-509.981 -166.375 93.7487 38260
-523.945 -59.1758 102.312 38262
-481.063 -46.4168 114.006 38263
-507.403 -60.881 96.3674 38268
-584.196 -93.9792 75.9564 38270
-502.922 -68.942 105.856 38271
-525.716 -68.3586 96.8272 38273
-584.198 -100.034 79.2665 38278
-681.894 53.0513 90.181 38289
-586.301 -33.536 98.4559 38291
-679.659 50.6211 91.7873 38293
-612.664 73.1612 85.6559 38296
-630.832 68.0612 78.3037 38298
-571.868 -32.5669 97.0652 38299
-635.692 54.6674 82.2233 38302
-624.584 69.3627 82.6985 38303
-571.181 66.9061 94.5342 38304
-692.293 54.9331 87.5097 38305
-635.677 19.1041 76.6448 38309
-636.482 72.3701 86.674 38311
-651.334 27.2215 58.9268 38314
-679.152 167.239 89.9182 38323
-679.066 144.145 92.2595 38325
-681.359 141.358 88.9288 38326
-664.393 178.562 112.309 38336
-677.98 152.636 79.5349 38341
-621.875 214.631 136.398 38342
-709.884 144.092 77.8863 38344
-720.709 208.663 81.7211 38348
-731.101 146.789 85.8 38350
-684.856 142.655 100.51 38354
-644.061 201.201 129.55 38356
-688.394 160.066 90.6544 38357
-730.698 125.746 100.935 38358
-258.65 -113.904 95.1321 38364
-316.043 -116.428 110.026 38366
-304.215 -147.789 107.722 38373
-346.528 15.5056 97.7932 38377
-431.99 -37.7404 111.116 38379
-348.164 -82.0213 96.0571 38382
-428.528 -46.6882 109.419 38386
-436.142 -45.5283 109.263 38388
-335.377 18.4724 104.768 38391
-392.634 -36.2372 90.7902 38394
-397.145 3.48316 87.582 38398
-398.443 -44.6209 92.7434 38399
-405.891 -39.0942 97.4906 38404
