ply
format ascii 1.0
element vertex 1220
property float x
property float y
property float z
property uchar red
property uchar green
property uchar blue
end_header
3.74343 1.27729 16.1207 255 255 255
  2.46078 -0.534648   16.8737 255 255 255
 3.81024 0.548282  15.8754 255 255 255
 -3.92103 -0.680337   15.3723 255 255 255
4.00931 1.21521 15.1167 255 255 255
-2.11755  1.97247  15.3648 255 255 255
 0.841995 -0.696568    16.493 255 255 255
 3.22271 0.605516   16.976 255 255 255
 -3.93832 -0.420173   15.3099 255 255 255
-2.28307  1.24018  15.4558 255 255 255
-4.84141 0.512374  12.9153 255 255 255
4.66216 1.96018  14.976 255 255 255
  1.93954 -0.680591   16.7541 255 255 255
-0.248897   1.99455   15.5082 255 255 255
 3.93891 0.579614  15.2275 255 255 255
-4.96637  1.09767  12.9047 255 255 255
 4.67843 -3.59479  16.8813 255 255 255
1.52478 1.32573 16.3695 255 255 255
2.65251 1.35579 16.6351 255 255 255
-4.04415  1.13533  13.0368 255 255 255
-0.764396  -0.54808   15.6712 255 255 255
 3.0511 2.17893 16.6989 255 255 255
 3.61944 0.672996  16.7062 255 255 255
5.06891 1.31293 15.2482 255 255 255
  4.06154 -0.536599   15.1881 255 255 255
3.75474 2.12303 15.9311 255 255 255
-3.9163 1.13722 13.0578 255 255 255
-3.95812 -3.40069  17.3331 255 255 255
-0.43517 0.629559  15.3886 255 255 255
 3.43467 0.690739  16.9083 255 255 255
  3.91219 -0.377777   15.5394 255 255 255
  6.89327 -0.350923    14.435 255 255 255
-2.67238 0.642885  15.4182 255 255 255
-4.04116  1.78279  12.9389 255 255 255
 -5.20229 -0.411675   12.9859 255 255 255
-5.06366 -3.47638  14.5467 255 255 255
2.74591 2.22472 16.5183 255 255 255
3.93879    1.34 15.2545 255 255 255
5.34441 2.08167 15.0515 255 255 255
0.0818839  -0.48897   15.8878 255 255 255
-3.89089  -3.7423  17.4188 255 255 255
-1.51205  1.37212  15.6164 255 255 255
-2.2444 1.35384 15.4515 255 255 255
1.49028 1.43786 16.3337 255 255 255
 -3.60433 -0.475013   15.4494 255 255 255
2.46095 1.46367 16.5621 255 255 255
  4.49903 -0.317549   15.2994 255 255 255
-5.6105 1.20623 12.6456 255 255 255
 4.66815 0.681636  15.1439 255 255 255
-0.843333 -0.305194    15.645 255 255 255
3.74252 1.46145 16.0873 255 255 255
-2.2038 2.11079 15.3477 255 255 255
 1.91483 0.742388  16.5117 255 255 255
-1.53668  2.13299  15.5036 255 255 255
-2.38738 -3.25819  17.6538 255 255 255
 -4.24889 -0.387546   13.2178 255 255 255
 -4.20449 -0.370831   13.2434 255 255 255
-2.20824 -3.25249  17.6808 255 255 255
-3.88965 -3.47326  17.3437 255 255 255
 -2.0697 -3.25444  17.7366 255 255 255
    3.23 0.767546  16.8396 255 255 255
-0.776588   1.41117    15.254 255 255 255
-1.46202   -3.183  17.5259 255 255 255
-0.00233014      1.4368     15.5816 255 255 255
 -5.65715 -0.215502   12.8435 255 255 255
 4.00563 0.718114  15.1691 255 255 255
 0.477444 -0.458106   15.9781 255 255 255
-4.80187 0.641024  12.9048 255 255 255
-1.8123 1.46649 15.6917 255 255 255
-3.09723 0.729411  15.3177 255 255 255
-2.05758  1.44666  15.4991 255 255 255
 6.90475 0.717829  14.4222 255 255 255
-3.00668 -3.11773  17.3985 255 255 255
  5.14065 -0.459779   15.4837 255 255 255
-3.81495 -3.41537  17.4467 255 255 255
-1.70318  1.45869  15.6145 255 255 255
   3.9421 -0.433568   15.4027 255 255 255
  1.5406 0.810297  16.4543 255 255 255
-3.71702 -3.28793  17.3604 255 255 255
4.61733 1.42439  15.045 255 255 255
 3.58244 0.829846  16.8529 255 255 255
-5.64958 0.670884   12.705 255 255 255
-3.70506 -3.15719  17.2568 255 255 255
-5.09632  1.86975  12.6497 255 255 255
-1.18795 -3.17348  17.6459 255 255 255
 1.35443 0.840959  16.3755 255 255 255
0.486862 -3.19171  18.2522 255 255 255
 3.84333 0.812412  15.6403 255 255 255
3.14874 1.57878  16.853 255 255 255
 1.31521 -3.17932  18.5302 255 255 255
4.74167 1.45539  15.074 255 255 255
 3.94261 0.810929  15.2321 255 255 255
0.369397 -3.18653  18.2243 255 255 255
 -5.8006 0.715161  12.7111 255 255 255
-5.44014  1.27913  12.6453 255 255 255
-4.77668 0.740366  12.8842 255 255 255
-0.371267   2.26034   15.4403 255 255 255
-0.781881   1.51668   15.2757 255 255 255
  -3.2391 -0.178515   15.4384 255 255 255
-3.2142  1.5479 15.1942 255 255 255
-0.374223   2.32582    15.428 255 255 255
-2.24215  1.57258  15.4244 255 255 255
-2.47322  1.56466  15.3693 255 255 255
3.88001 2.38472 15.4122 255 255 255
-2.52021 -2.00519  16.5788 255 255 255
  2.4044 0.981008  16.6159 255 255 255
  -1.5355 -0.132206   15.8455 255 255 255
2.46261 1.67718 16.5314 255 255 255
-0.286789  -2.77503   17.3401 255 255 255
1.49324 1.65671 16.3048 255 255 255
-2.85781   2.3988  15.1287 255 255 255
  3.84854 -0.138791   16.0183 255 255 255
 4.02879 -0.11295  15.1176 255 255 255
0.356822  1.61615  15.5562 255 255 255
-2.46745  -1.7994    16.42 255 255 255
4.30751 1.62281  14.945 255 255 255
0.0783837   1.66416   15.5405 255 255 255
-5.60463  1.41984  12.6127 255 255 255
   4.58887 -0.0953676     15.249 255 255 255
-0.642044   1.64907   15.3579 255 255 255
4.53483 1.64644 15.0013 255 255 255
     4.04857 -0.000451781      15.1112 255 255 255
5.43738 1.67475 15.2151 255 255 255
-3.56855 -2.02351  16.3459 255 255 255
1.52042 1.75948   16.29 255 255 255
-0.842679 0.0126328   15.6025 255 255 255
-4.96054 -1.26385  13.0696 255 255 255
-4.80641 -1.25557  13.1037 255 255 255
-4.69533 -1.26222  13.1253 255 255 255
-4.54401 -1.25683  13.1591 255 255 255
-0.631928 0.0239667   15.6302 255 255 255
 4.65731 -1.79766  15.5286 255 255 255
0.413673 -1.54741  16.4791 255 255 255
-1.52081 -1.84356  16.6961 255 255 255
0.417071  1.74891   15.572 255 255 255
-0.515703  -1.72581   15.9241 255 255 255
 -2.0196 -1.43778  16.0103 255 255 255
 4.1146 -1.7561 16.1392 255 255 255
 -1.53343 0.0693599   15.8188 255 255 255
 -4.61066 0.0779806   13.0349 255 255 255
  -5.6092 0.0993312   12.7975 255 255 255
 2.6968 1.89895 16.5591 255 255 255
-5.06888  -1.4067  13.1828 255 255 255
-4.95177 -1.06004  13.1154 255 255 255
-4.68799 -1.38926  13.2663 255 255 255
 1.93751 -1.32436  16.9087 255 255 255
  1.732 1.87512 16.3243 255 255 255
0.967903 -1.25646  16.6884 255 255 255
 5.32656 0.130033    15.43 255 255 255
2.66792 2.00689 16.5323 255 255 255
5.40305 0.12816 15.4468 255 255 255
-3.65017 -1.16901  15.5553 255 255 255
5.48057 0.12938 15.4646 255 255 255
-3.21416  1.76824  15.1557 255 255 255
-1.27326 -1.16428   15.758 255 255 255
-0.702366  0.139096   15.5967 255 255 255
 -5.15689 -0.959734   13.0338 255 255 255
 1.71146 0.139024  16.5877 255 255 255
 3.71303 -1.19877  16.5692 255 255 255
0.0180359  0.153008   15.7636 255 255 255
 -5.27711 -0.929328    13.017 255 255 255
-2.28515 0.161203  15.6329 255 255 255
-4.03731  1.56462  12.9658 255 255 255
 5.64962 0.165862  15.4999 255 255 255
-5.10971 0.186378  12.8952 255 255 255
 3.34475 -1.13662  17.2801 255 255 255
 -5.26963 -0.835045   13.0439 255 255 255
 6.76905 0.214044  15.2979 255 255 255
0.268116  1.96047  15.4475 255 255 255
-0.640817   1.85566   15.3324 255 255 255
 4.04956 0.215953  15.0962 255 255 255
4.61785 1.86103 14.9859 255 255 255
  -4.1335 -0.821583   13.2963 255 255 255
-0.779759   1.95749   15.1802 255 255 255
 3.94045 0.232688  15.8324 255 255 255
-0.836121   0.23739   15.5614 255 255 255
  4.015 1.86696 15.0068 255 255 255
-5.62738 -0.74618  12.9352 255 255 255
 3.52645 -0.97324  17.2281 255 255 255
-0.883912   1.90325   15.2389 255 255 255
3.49051 2.25006 16.6976 255 255 255
4.10071 0.28257 15.0673 255 255 255
5.56189 1.95155  15.204 255 255 255
1.71028 0.35215 16.5563 255 255 255
 -5.26552 -0.620304   13.0054 255 255 255
2.69547  2.1114 16.5215 255 255 255
  0.17799 -0.743676   15.9786 255 255 255
-5.29466 0.320442  12.8519 255 255 255
 5.41192 0.366518  15.4083 255 255 255
-0.637573   1.96395   15.3172 255 255 255
1.73023 2.09028 16.2941 255 255 255
0.69413 2.00897 15.6045 255 255 255
 -5.62616 -0.535896   12.9057 255 255 255
1.50441 2.08601  16.237 255 255 255
   7.0309 -0.640511   14.7292 255 255 255
 -5.54733 -0.519889   12.9346 255 255 255
-0.770346   2.18819    15.247 255 255 255
 3.97704 0.443936  15.2261 255 255 255
-3.21218  1.98438  15.1215 255 255 255
 -4.49577 -0.503337   13.1725 255 255 255
 -2.57465 -0.610283   15.6357 255 255 255
 3.72457 0.482479  16.2056 255 255 255
 -1.12726 -0.580245   15.6296 255 255 255
-3.91973 0.429003  13.1679 255 255 255
3.33313 2.54242 16.5781 255 255 255
-0.846382 -0.567398   15.6567 255 255 255
-5.13291 0.436624  12.8797 255 255 255
 3.7651 2.48989 15.7371 255 255 255
 -4.0947 0.432501  13.1313 255 255 255
 0.588608 -0.541362   15.9956 255 255 255
-0.23752  2.05981  15.5141 255 255 255
5.72494 2.07162 15.1264 255 255 255
3.79188 2.14589 15.8327 255 255 255
 -3.76107 -0.421417   15.3479 255 255 255
-5.62232 -0.32174  12.8732 255 255 255
4.26146 2.43078 14.8038 255 255 255
  3.80118 -0.433006   16.0646 255 255 255
0.601964  2.09249  15.5798 255 255 255
-2.95446  2.46693  15.0734 255 255 255
2.89229 2.59888 15.8938 255 255 255
 -5.24169 -0.304834   12.9769 255 255 255
5.68326 2.12138 15.2081 255 255 255
 -4.09948 -0.295107   13.2348 255 255 255
-5.70382  1.85805  12.6202 255 255 255
  2.07247 -0.226369   16.7412 255 255 255
3.17486 2.42257  16.753 255 255 255
-1.27562  2.54372  15.0779 255 255 255
-0.666245   2.48468   14.6207 255 255 255
 -5.62045 -0.102839   12.8356 255 255 255
3.26892 2.46248 16.5642 255 255 255
-5.63709  2.22634  12.4722 255 255 255
-5.56083    2.219  12.4377 255 255 255
-4.0943 2.25075 12.8241 255 255 255
-5.72339  2.22358  12.4399 255 255 255
  -3.93226 -0.0653318    13.2866 255 255 255
 -0.566222 -0.0952701    15.6719 255 255 255
1.29673 2.50071 16.1075 255 255 255
  3.92292 -0.061587   15.4967 255 255 255
3.76319 2.91673 15.6642 255 255 255
  5.37727 0.0229709   15.4593 255 255 255
-3.99501  2.44636  12.6626 255 255 255
3.56735 3.19713 16.6168 255 255 255
  -5.8719 0.0888701   12.7901 255 255 255
-2.68785 0.148345   15.537 255 255 255
1.16414 1.71217 8.53945 255 255 255
 3.92184 0.152794  15.4498 255 255 255
  3.45325 -0.137667   17.0605 255 255 255
4.27483 1.52226 14.9505 255 255 255
4.55148 1.51884 15.0172 255 255 255
5.40801 1.55515 15.2248 255 255 255
-1.21839  1.77797  15.1748 255 255 255
 -4.42726 -0.590771   13.2053 255 255 255
2.07668 -0.4001 16.7989 255 255 255
  2.92294 -0.114583   17.0437 255 255 255
 -4.99598 -0.583676   13.1639 255 255 255
-1.79714   1.5881   15.668 255 255 255
    1.0852 -0.0183719    16.5612 255 255 255
0.993776  1.62095  16.2667 255 255 255
-3.87496 -3.29608  17.3202 255 255 255
  5.24292 -0.317262   15.4843 255 255 255
3.15508 1.68896 16.8195 255 255 255
  3.46289 0.0731306   17.0403 255 255 255
-0.201261  -3.18286   17.4707 255 255 255
 -4.56778 -0.512939   13.1676 255 255 255
-1.86762  -2.9438  17.5361 255 255 255
-5.29636 -0.20646  12.9497 255 255 255
5.08285 1.62746 15.2105 255 255 255
 3.12697 0.141093  17.0554 255 255 255
4.41934 1.65028 14.9678 255 255 255
 4.39088 0.128758  15.1952 255 255 255
2.36435 1.24276 16.5751 255 255 255
  5.5143 0.157818  15.4648 255 255 255
-0.774271   2.08265   15.1768 255 255 255
 2.22562 0.247785  16.7727 255 255 255
 -2.548 1.17978 15.4009 255 255 255
-1.02528 0.250364  15.5138 255 255 255
0.996017  2.23877  16.1397 255 255 255
 -5.00083 -0.179719   13.1368 255 255 255
1.23365  2.2561 16.2573 255 255 255
0.969805 0.299161  16.4354 255 255 255
 1.09306 -2.06054  17.5748 255 255 255
 0.965577 -0.169533   16.5193 255 255 255
0.992068  1.83484  16.2399 255 255 255
-1.57679 -3.49086  17.4432 255 255 255
  -5.42491 -0.0844851    12.8978 255 255 255
1.41488 1.23838 16.3345 255 255 255
  3.1313 0.379371  17.0254 255 255 255
 -3.54621 -0.382746   15.3874 255 255 255
 -2.57014 -0.368827   15.6339 255 255 255
  3.4575 0.505821   16.942 255 255 255
4.33098 2.17862 14.7185 255 255 255
 2.39527 0.583437  16.6893 255 255 255
5.08578 1.81939 15.1816 255 255 255
-4.92638 -1.25812  13.1033 255 255 255
 2.91652 0.644885  16.8671 255 255 255
  -5.5614 -0.203168   12.8771 255 255 255
-3.17957 0.648045  15.2781 255 255 255
  -4.28672 -0.0527889    13.1555 255 255 255
 -1.96269 -0.262594   15.9922 255 255 255
2.57222 1.36325 16.6147 255 255 255
-2.01472  -1.4265  15.9708 255 255 255
   1.76919 -0.0754011    16.6404 255 255 255
-4.87031 -1.16652  13.1464 255 255 255
 -0.44848 -0.267937   15.8062 255 255 255
   6.78473 -0.0885455    15.3706 255 255 255
-0.112223   2.26585   15.5273 255 255 255
 2.37137 -0.05254  16.7753 255 255 255
1.96657 2.04083 16.4245 255 255 255
-4.45029 0.690776  13.0095 255 255 255
3.16409 2.08553 16.7662 255 255 255
-5.54162  1.11071  12.6746 255 255 255
0.858246 -1.22932  16.6319 255 255 255
 -0.448324 -0.0164003    15.8275 255 255 255
-0.456687   1.30453   15.5732 255 255 255
5.08763 2.03113 15.1497 255 255 255
1.21769 1.36921 16.3014 255 255 255
  5.65208 0.0122894   15.5021 255 255 255
-4.66723 -1.67786  13.3676 255 255 255
 2.89123 0.930798  16.7314 255 255 255
0.268168  2.08951  15.4335 255 255 255
0.720955 -1.12265   16.357 255 255 255
3.16548 2.29465 16.7249 255 255 255
2.18604 1.38129 16.5307 255 255 255
-3.54172 -0.18864  15.3811 255 255 255
 1.15559 -1.14108  16.7349 255 255 255
2.93551 2.28491 16.5978 255 255 255
 -1.35387 -0.947198   15.4898 255 255 255
0.564845  2.17281  15.5636 255 255 255
-0.168846   -1.9351   16.0302 255 255 255
 -4.97449 -0.741201   13.0805 255 255 255
1.96602 2.26643 16.3708 255 255 255
2.62991   1.172 16.8524 255 255 255
-3.15561  1.33888  15.2696 255 255 255
 -3.17065 -0.176473   15.4582 255 255 255
5.24026 2.63529 14.9959 255 255 255
3.82013 1.10173 15.7664 255 255 255
  3.80972 -0.869229   15.8693 255 255 255
-2.19165  1.34558  15.4647 255 255 255
-2.54181  1.35906   15.378 255 255 255
 4.95686 -0.77652   15.486 255 255 255
 2.37874 0.160526  16.7373 255 255 255
 -2.56231 -0.161699   15.6029 255 255 255
0.389262  2.21323  15.4592 255 255 255
0.650983  1.14182  15.6412 255 255 255
3.06135 2.40522 16.6739 255 255 255
 3.58422 0.166986  16.7495 255 255 255
 4.61918 -1.74806  15.6028 255 255 255
3.34156 1.48894 16.7729 255 255 255
-0.22533 0.211228  15.8568 255 255 255
 4.49441 -0.60205  15.3443 255 255 255
3.90047  1.1698 15.5582 255 255 255
  3.97139 -0.596495   15.3448 255 255 255
-0.443106  0.220458   15.7704 255 255 255
  5.66277 -0.585145   15.6487 255 255 255
2.38909 1.47091 16.5479 255 255 255
-0.548994  -1.72779   16.0334 255 255 255
4.41802 1.19766 15.0518 255 255 255
0.44159   1.244 15.6637 255 255 255
 2.09133 0.393806  16.6209 255 255 255
  1.08869 -0.439462    16.563 255 255 255
 -1.03725 -0.387797   15.6102 255 255 255
4.82188 0.38362 15.2804 255 255 255
5.04923 2.51915 14.8248 255 255 255
-3.18761 0.466101  15.3816 255 255 255
3.89448 2.61453 15.3389 255 255 255
 1.41916 0.536117  16.4385 255 255 255
  -1.43675 -0.0302992    15.7449 255 255 255
-3.89489  2.23825  12.8511 255 255 255
-2.98023  2.57062  15.0965 255 255 255
-1.99596  1.35172  15.6088 255 255 255
2.57384 1.60055 16.5791 255 255 255
 1.8202 -1.2275 16.8754 255 255 255
  5.52009 -0.288044   15.5434 255 255 255
3.31223 2.92414  16.532 255 255 255
-4.40402  1.32997  12.9069 255 255 255
4.44477 2.67297 14.7897 255 255 255
-4.9835 2.34119 12.6889 255 255 255
-3.15401  1.54801  15.2423 255 255 255
5.07671 1.41713 15.2392 255 255 255
 3.49466 0.860566  16.8602 255 255 255
-2.53682  1.55856  15.3446 255 255 255
  4.51567 -0.213211   15.2871 255 255 255
3.23414 1.11232 16.7689 255 255 255
2.38512 1.67137 16.5096 255 255 255
  5.22216 -0.848591   15.5496 255 255 255
0.876162  1.51364  16.0854 255 255 255
1.79055 2.87048 15.5601 255 255 255
-0.121322    1.5985   15.6715 255 255 255
-2.60063  2.81642  15.1385 255 255 255
 1.21778 0.115741  16.5116 255 255 255
  -2.6648 -0.716146   15.6521 255 255 255
-5.41717 0.989875  12.7275 255 255 255
-1.96329 0.136812   15.941 255 255 255
-0.716161  -2.86285    17.315 255 255 255
 5.23772 0.144436  15.4219 255 255 255
-0.39576 -0.65977   15.789 255 255 255
-1.43104 0.178756  15.6748 255 255 255
5.07841 1.16728 15.2776 255 255 255
 -5.43729 -0.520756   12.9631 255 255 255
  3.68323 -0.661847   16.4783 255 255 255
 1.59479 0.247093  16.5557 255 255 255
2.57404 1.79325 16.5567 255 255 255
-2.53585  1.76983  15.3239 255 255 255
   2.3236 -0.602544   16.8411 255 255 255
 -5.56623 -0.421836   12.9095 255 255 255
 1.40716 0.355926  16.4861 255 255 255
 -5.30313 -0.422031   12.9838 255 255 255
  1.7766 0.369413  16.5415 255 255 255
 -4.88123 -0.434083    13.162 255 255 255
0.983775  1.37669  16.2564 255 255 255
4.64604 0.35478 15.2244 255 255 255
 2.37469 0.397581  16.6916 255 255 255
1.95508 1.38139 16.4905 255 255 255
 3.30749 0.395987  16.9703 255 255 255
  3.29118 -0.525548   17.0319 255 255 255
  -1.4428 -0.444811    15.803 255 255 255
3.15702 1.43233 16.8595 255 255 255
-2.37932 0.403582  15.5705 255 255 255
 1.60194 0.487276  16.5103 255 255 255
-1.58248  1.38431  15.5957 255 255 255
0.673901 -1.36979  16.5631 255 255 255
-5.57702 -1.05237  13.0805 255 255 255
 3.64622 0.565522   16.436 255 255 255
-5.33965 -1.04924  13.0456 255 255 255
2.58565 1.99923 16.5237 255 255 255
0.972578 0.575011  16.3512 255 255 255
4.69183 1.86775 15.0083 255 255 255
-4.41283 -1.04181  13.3423 255 255 255
-5.27722  1.31683  12.7157 255 255 255
 1.24894 0.584317   16.463 255 255 255
1.21422 1.64099  16.308 255 255 255
-1.57692   1.5883  15.5822 255 255 255
2.76663 1.68903  16.611 255 255 255
 1.73905 0.631156  16.5518 255 255 255
-4.74124  1.82336  12.8328 255 255 255
-0.604609  -1.20613   15.8808 255 255 255
-1.39737  2.13059  15.3654 255 255 255
1.62183 2.23669 16.2431 255 255 255
-4.26738  1.45757  12.9221 255 255 255
2.58648 2.27372 16.4744 255 255 255
 3.84955 -1.02841  15.9993 255 255 255
 4.9615 2.18281  14.963 255 255 255
1.11328 2.42202 16.0926 255 255 255
 -5.31008 -0.612729   13.0056 255 255 255
-3.34683 0.784809  15.3004 255 255 255
-3.34504 0.786707  15.2923 255 255 255
1.71111 2.67358 15.5758 255 255 255
-3.15578   2.5594  14.4588 255 255 255
-4.14888 0.925223  13.0389 255 255 255
2.73217 2.41887 16.4765 255 255 255
 4.10238 0.669293  15.0457 255 255 255
2.73274 2.42998 16.4956 255 255 255
-0.790721  -4.31883   18.2539 255 255 255
4.71538 2.50682 14.9157 255 255 255
5.23869 2.49536 14.8504 255 255 255
 -4.28585 -0.699289   13.2516 255 255 255
-4.85659 0.432596  12.9235 255 255 255
  -5.13964 -0.0669427    12.9479 255 255 255
-4.64437 -1.56033  13.3358 255 255 255
 -5.51756 0.0538007   12.8355 255 255 255
 5.6195 1.05512 15.4602 255 255 255
-2.36299   1.2322  15.4418 255 255 255
 -4.2579 -1.25847  13.3228 255 255 255
-4.73737 0.150099  13.0295 255 255 255
-4.84152 0.132632  12.9662 255 255 255
-2.36135  1.47445  15.4141 255 255 255
-4.25152  2.33522   12.787 255 255 255
-1.34988 -3.02546  17.4299 255 255 255
 -2.1717 0.270638  15.6206 255 255 255
 4.39379 0.984841  15.0719 255 255 255
4.10318 1.63911  14.891 255 255 255
-2.99433  2.78548  14.2202 255 255 255
 -3.136 1.77618 15.1591 255 255 255
 2.51862 -1.09882  17.0661 255 255 255
4.93444 1.15299 15.0895 255 255 255
 -4.55763 -0.694427    13.154 255 255 255
-2.35606  1.88996  15.3604 255 255 255
  -1.4434 -0.709172   15.7756 255 255 255
-0.308095 -0.697978   15.8117 255 255 255
5.54702 2.02304 15.1699 255 255 255
 -5.14925 -0.512049   12.9998 255 255 255
-2.35263  2.14875   15.316 255 255 255
-4.27354 0.816186  13.0205 255 255 255
-5.14045 -0.70503  13.0294 255 255 255
-2.92876 -1.62621  15.8274 255 255 255
4.11881 2.11263 14.8389 255 255 255
4.96351  1.5407 15.1213 255 255 255
 -2.87055 -0.252334   15.6098 255 255 255
-3.38151 -1.26097  15.6416 255 255 255
   5.74457 -0.0487983    15.6058 255 255 255
-4.26158  1.73797  12.8988 255 255 255
3.38207 2.46547 16.5327 255 255 255
-2.66325 -2.99584  17.3061 255 255 255
4.11256 1.41678 14.8846 255 255 255
 1.23702 0.995266  16.3048 255 255 255
2.95666 1.00436 16.6674 255 255 255
 -0.322169 -0.0606675     15.755 255 255 255
2.63145 1.70191 16.7388 255 255 255
-0.927204   1.84331   15.3114 255 255 255
  4.91375 -0.885154   15.4526 255 255 255
   5.33918 -0.0440561    15.8043 255 255 255
-3.35541 -2.57081  17.2044 255 255 255
-5.01402  2.38914  12.7319 255 255 255
-0.827687  -4.73202   18.3518 255 255 255
-0.957683  -4.28227   18.1523 255 255 255
-0.636016  -4.29513   18.3204 255 255 255
-0.996468  -4.28477   18.2902 255 255 255
-0.945016   2.58986   14.5128 255 255 255
-1.53332  1.29003  15.6249 255 255 255
0.435747  2.54951  14.3852 255 255 255
-5.22943 0.709233  12.8124 255 255 255
2.80528 2.58113 14.5808 255 255 255
-4.20626 0.797616  15.0797 255 255 255
-5.08842 -3.38854  14.4038 255 255 255
2.14036 1.35238 16.6024 255 255 255
-0.929508   2.62316   14.7144 255 255 255
-0.837539  -4.02376    18.043 255 255 255
  5.69249 -0.531341   15.6079 255 255 255
-0.716623   2.57476   14.4306 255 255 255
-2.93953 0.175764  15.5989 255 255 255
-4.16704 0.812666  15.0718 255 255 255
 2.27373 0.178649  16.7418 255 255 255
    4.486 -0.514478   15.3049 255 255 255
3.95361 1.25949 15.2053 255 255 255
-4.43851 0.171157  13.0977 255 255 255
-0.865863   1.27866   15.3563 255 255 255
-3.93276 -3.83176  17.4622 255 255 255
-4.14805   1.2945  15.0053 255 255 255
-5.49375 -3.59082  16.2439 255 255 255
-0.527611   1.29813   15.5764 255 255 255
-1.60668 -3.72724   17.455 255 255 255
  1.50889 -0.552026   16.7749 255 255 255
  4.21488 -0.497726   15.2454 255 255 255
2.43379 1.37608 16.5676 255 255 255
  3.54662 -0.559085   17.0578 255 255 255
 0.18094 -3.80307  18.0259 255 255 255
 4.92326 0.805463  15.1802 255 255 255
-3.12087 0.197482  15.4456 255 255 255
0.135131  -3.8042   18.075 255 255 255
-4.61775 -3.59966  16.7339 255 255 255
-0.870677  -3.76436   17.9567 255 255 255
-2.2723  1.3188 15.4759 255 255 255
-0.941378  0.205625   15.5323 255 255 255
-4.35945  1.16415  12.9551 255 255 255
5.75787 1.30862 15.2916 255 255 255
-4.07802  1.33074  15.0366 255 255 255
 4.07929 0.817072  15.0099 255 255 255
-0.589833  -3.73512   18.2395 255 255 255
-2.53292  1.32947  15.3868 255 255 255
  1.25494 -0.515708    16.676 255 255 255
-3.92154 -3.62204  17.4039 255 255 255
-0.165707  0.849075   15.4963 255 255 255
-1.58552 -3.51791  17.4488 255 255 255
 -3.88377 -0.468427   15.3233 255 255 255
  1.12376 -0.489786   16.4878 255 255 255
-5.12424 -3.93438  14.5383 255 255 255
-5.13792  -3.7388  14.5505 255 255 255
 2.27752 -3.68358  18.9003 255 255 255
-5.09418 -3.69192  14.5093 255 255 255
-0.195181   1.35305   15.6335 255 255 255
 1.90667 0.906331  16.4873 255 255 255
 0.21046 -3.50187  17.9444 255 255 255
-5.14598 -3.50738  14.4021 255 255 255
 -4.37918 -0.370412   13.1722 255 255 255
 -4.0647 0.227238  13.1499 255 255 255
 2.24566 -3.62925  18.8973 255 255 255
-5.25929 -2.81868  13.9619 255 255 255
-5.32441 -2.80982  13.9919 255 255 255
  1.4375 0.244254  16.5108 255 255 255
-2.47453 0.885786  15.4798 255 255 255
 6.79557 0.250875   15.077 255 255 255
 -2.08514 -0.427246   15.6451 255 255 255
-5.35214 -2.78462  14.0157 255 255 255
 -1.45131 -0.430149   15.9635 255 255 255
-0.792827  -3.40959   17.9296 255 255 255
-5.3525 -3.5126 16.1502 255 255 255
-0.0229366  -0.421502    15.8419 255 255 255
-5.34063 -2.74288  13.9413 255 255 255
-5.09959 -3.06098  14.2562 255 255 255
 4.9966 1.35624 15.2138 255 255 255
 -5.2334 -2.99357  14.1701 255 255 255
-0.570062  -3.33687   17.7635 255 255 255
 -4.9574 -3.00323  14.2638 255 255 255
-5.21239 -2.93453   14.045 255 255 255
-0.723391  -3.28905   17.6387 255 255 255
-0.298088  -3.30652    17.782 255 255 255
-1.95347  1.40792  15.6268 255 255 255
 0.449013 -0.384803   15.9551 255 255 255
-1.85092   1.4069  15.6273 255 255 255
  4.37703 -0.359433   15.2502 255 255 255
3.46083 -3.4344 18.6378 255 255 255
  -3.994 0.915088  15.1324 255 255 255
-1.57508 -3.23418  17.4182 255 255 255
-4.24782  1.41042   15.002 255 255 255
-3.88171 0.919831  15.1361 255 255 255
6.60486 2.82962 15.8809 255 255 255
0.244564 -3.24049  17.8616 255 255 255
 -5.3742 0.276766  12.9929 255 255 255
0.314692 0.915091  15.6024 255 255 255
-0.33963  1.42162  15.5859 255 255 255
-2.94084 0.300901  15.5873 255 255 255
0.246465 -3.18821  17.8308 255 255 255
  5.45972 -0.314365    15.535 255 255 255
 4.62761 -2.94219  16.6256 255 255 255
 4.72685 -2.93796  16.6528 255 255 255
-2.8434 0.93974 15.3548 255 255 255
  6.71447 -0.292875   15.3619 255 255 255
 1.20811 0.968799  16.3287 255 255 255
 3.38656 -3.26212  18.6123 255 255 255
-0.968349   2.61376   14.3537 255 255 255
 -4.26947 -0.253472   13.0713 255 255 255
-1.89786  -3.1436  17.7104 255 255 255
 -1.52188 -0.314403   15.8788 255 255 255
-1.57272  -3.0604  17.3915 255 255 255
 3.77284 0.324111   16.149 255 255 255
 -1.42515 -0.313869   15.9406 255 255 255
-4.13683  0.94992  15.0709 255 255 255
-3.95502 0.289826  13.1093 255 255 255
 -2.0061 -3.07989  17.6048 255 255 255
  6.77085 -0.269258   15.0238 255 255 255
-3.89377 0.942846   14.986 255 255 255
-4.0799 0.32175 15.1683 255 255 255
5.40952 1.46369  15.252 255 255 255
-1.10567 0.314642  15.4785 255 255 255
-4.13411 0.293842  13.0331 255 255 255
-0.0299753    1.48713    15.6234 255 255 255
-2.79082  -3.0115  17.3995 255 255 255
 3.92687 0.329017  15.7562 255 255 255
-4.08241  1.49028  15.0391 255 255 255
-3.06187 -2.99262  17.3219 255 255 255
2.39762  -3.178 18.7781 255 255 255
0.200599  2.57292  14.1999 255 255 255
-1.10839  1.47265  15.2781 255 255 255
 1.46554 -3.13888    18.56 255 255 255
 -5.24262 -0.211988   12.8848 255 255 255
-5.50485  2.42534  12.4361 255 255 255
-3.90383 0.298187  13.0978 255 255 255
 -3.55005 -0.262754   15.4424 255 255 255
5.65155 2.75262 15.1038 255 255 255
 3.32213 -3.12537  18.5797 255 255 255
1.84301 2.82136 15.5601 255 255 255
  4.32295 -0.212701     15.24 255 255 255
0.128188 0.962011  15.5457 255 255 255
1.68641 2.82886 15.5851 255 255 255
 4.97595 -2.77806  16.5922 255 255 255
0.750444  2.65562  14.5257 255 255 255
-2.89644 0.975169  15.2874 255 255 255
 -4.1275 -0.17268  13.2159 255 255 255
4.90546 2.69345 14.6538 255 255 255
-3.96661 0.988078  15.0946 255 255 255
0.360638  2.59021   14.066 255 255 255
  5.20645 -0.195096   15.4252 255 255 255
-5.10023 0.884962  12.7996 255 255 255
2.47675 1.61496 16.5506 255 255 255
-1.11181 0.368565  15.4729 255 255 255
 -2.8846 -2.90043  17.2482 255 255 255
 2.09106 -3.07285  18.6533 255 255 255
-3.63386 0.991202   15.177 255 255 255
-5.39342  1.35092  12.6327 255 255 255
-5.35394 -2.81889  13.9896 255 255 255
0.387655 0.996283  15.7065 255 255 255
 4.18034 -3.07943  18.8149 255 255 255
 4.94093 -2.71015  16.5609 255 255 255
-1.07687 -2.82987  17.1727 255 255 255
0.15599 1.55157 15.5706 255 255 255
-5.29524  -2.7939  14.0095 255 255 255
 4.27112 -2.95737  18.2659 255 255 255
 4.76612 -3.16498  16.7908 255 255 255
  1.47792 -0.195283   16.6037 255 255 255
-3.09745  1.56478  15.2072 255 255 255
-0.333161   -3.3681   17.8459 255 255 255
-0.799349   2.66063   14.3708 255 255 255
0.219028 -2.84538  17.7767 255 255 255
 3.39287 -2.95625  18.5625 255 255 255
-0.336182   1.00886   15.5115 255 255 255
4.0816 0.3983  14.98 255 255 255
 3.92105 -3.17935  19.9554 255 255 255
3.94659   1.533 15.1429 255 255 255
-3.50931  1.57789  15.1325 255 255 255
 3.94773 0.996995  15.2425 255 255 255
-4.13026  2.47356  12.7533 255 255 255
-4.72798 -2.72009  16.6094 255 255 255
-0.685125 -0.151106    15.651 255 255 255
 4.23805 -2.89644   18.351 255 255 255
-0.731223 -0.150579   15.6325 255 255 255
  3.3014 -2.89488  18.5307 255 255 255
-0.181828   2.57786    13.922 255 255 255
3.54705 3.02533 16.5102 255 255 255
 -1.14674 -0.142287   15.5336 255 255 255
-2.53514  1.59642  15.3503 255 255 255
  3.968 2.76702 14.9714 255 255 255
-3.81069 -3.18527  17.2587 255 255 255
2.39108 1.67736 16.5206 255 255 255
 4.60077 -2.98427  16.6405 255 255 255
 -5.2293 0.930524   12.782 255 255 255
-5.73131  2.47318  12.3885 255 255 255
 5.4564 -0.1243 15.5022 255 255 255
5.74927   1.595  15.305 255 255 255
-6.45229  2.60037  13.0076 255 255 255
4.23366 1.01154 15.0126 255 255 255
-4.0222 1.42649 13.0319 255 255 255
3.57533 3.01345 16.3555 255 255 255
0.390034 -0.11859  15.8856 255 255 255
4.05076 0.43513 15.0306 255 255 255
 5.08498 -2.46238  16.4524 255 255 255
-2.41313 -3.12572  17.5816 255 255 255
4.22718 1.56275 14.9362 255 255 255
 0.256464 -0.117206   15.8228 255 255 255
1.31323  2.9709 16.1018 255 255 255
-4.25353  0.94341  13.0131 255 255 255
 3.29033 -3.20904  18.5749 255 255 255
0.313772 -2.65848  17.8489 255 255 255
-0.521767  -3.02861   17.5008 255 255 255
0.790043     2.74  14.7382 255 255 255
5.27891  1.5957 15.0907 255 255 255
-4.52808 -2.12177  13.8019 255 255 255
   -1.0257 -0.0957688    15.5508 255 255 255
-4.06514 -2.52349  16.6209 255 255 255
 4.63068 -2.84503  16.5562 255 255 255
 3.80228 0.477777  15.8744 255 255 255
 3.39914 -2.71816  18.5275 255 255 255
-1.50468  1.08059  15.6411 255 255 255
  0.111398 -0.0877647    15.8261 255 255 255
-1.86372  1.66794  15.6863 255 255 255
   1.56016 -0.0982068    16.6045 255 255 255
-3.78081 -3.01634  17.2479 255 255 255
2.64105 2.91385 15.7042 255 255 255
  -4.44625 -0.0561113    13.1264 255 255 255
 4.19456 0.467723  15.0758 255 255 255
0.734953 -3.07916  18.3295 255 255 255
  -1.52381 -0.0682119    15.8546 255 255 255
-5.35138  1.45891  12.6612 255 255 255
-0.603686    1.0755   15.4769 255 255 255
-1.27325  1.07992   15.308 255 255 255
0.779646 -3.05568  18.3145 255 255 255
 -0.934512 -0.0586315    15.5761 255 255 255
 3.94708 -2.78703  19.9172 255 255 255
 1.25728 -3.04356  18.5005 255 255 255
-0.0991826    2.60461    13.8293 255 255 255
   5.68722 -0.0361315    15.4771 255 255 255
 3.37333 -2.55681  18.4982 255 255 255
   2.04538 -0.0487041    16.8022 255 255 255
-2.31944 0.514219  15.5748 255 255 255
-4.52571  1.47593  12.8883 255 255 255
-6.45104  2.64502  13.0851 255 255 255
-6.38966  2.64007  13.0354 255 255 255
  0.320014 -0.0315228     15.877 255 255 255
-4.05232  2.86776  14.7303 255 255 255
-3.75932 0.522179  15.5063 255 255 255
  3.0532 -3.12769  19.6939 255 255 255
2.38821 1.77703 16.4909 255 255 255
 3.37255 -2.50116  18.4931 255 255 255
-4.65017  2.54064  12.6768 255 255 255
 4.37374 -2.15757   16.049 255 255 255
 4.04318 -2.48655   18.571 255 255 255
-3.39762   1.1421  15.2288 255 255 255
4.35213 -2.6095 16.9051 255 255 255
-3.97639  2.89076  14.7086 255 255 255
-2.32897  1.72547   15.395 255 255 255
-4.08321 0.545248  15.1361 255 255 255
 3.04446 -2.98835   19.524 255 255 255
 2.61541 -2.84275  18.7465 255 255 255
-5.50202 -2.16317  13.5513 255 255 255
-4.53555 -2.17942  13.8523 255 255 255
-3.52721   1.1629  15.1828 255 255 255
4.11999 -2.3298 17.7986 255 255 255
  3.93431 0.0212662   15.4274 255 255 255
-4.89475 -2.75131  17.7467 255 255 255
-3.23173  1.73524  15.1652 255 255 255
3.62327 1.22616 16.5318 255 255 255
 -5.63952 0.0299303   12.8168 255 255 255
-4.82287 -1.81994  13.3602 255 255 255
-3.75335 0.564661  15.3512 255 255 255
-4.61118  -1.8297  13.5784 255 255 255
 4.32859 -2.45395  16.7986 255 255 255
-3.23213  1.19386  15.2468 255 255 255
-5.04069 -2.02462  13.3033 255 255 255
 3.89896 -2.48435  19.3649 255 255 255
-5.8533 2.53102 12.3011 255 255 255
 -5.41473 0.0503854   12.8717 255 255 255
-3.11779 0.559471  15.3659 255 255 255
-4.61023 -1.77832  13.3682 255 255 255
 -1.17935 0.0348348   15.4594 255 255 255
-0.319823   2.62729   13.6795 255 255 255
-5.58477 -2.04342  13.4621 255 255 255
 1.98437 -2.28833  17.9409 255 255 255
-4.49875 0.503404  13.0036 255 255 255
 4.31743 -1.99234  15.9283 255 255 255
  3.3555 -2.31696   18.545 255 255 255
-2.26277  1.21344  15.4776 255 255 255
 -4.34859 0.0746532   13.1215 255 255 255
-0.343218   1.21026   15.6213 255 255 255
0.182481  1.20693  15.6064 255 255 255
 3.28573 -2.31027  18.6479 255 255 255
-5.52675 -2.01183  13.4643 255 255 255
3.58284 1.31553 16.7876 255 255 255
-3.16371  2.85153  14.3593 255 255 255
-3.66478 -2.05174   16.305 255 255 255
0.477114  2.67338  13.7583 255 255 255
-3.47256  1.24133  15.1949 255 255 255
 -4.12029 0.0988082   13.1735 255 255 255
-5.27821  2.51418  12.0352 255 255 255
4.70092 1.73122 15.0116 255 255 255
1.36632 0.60262 16.4258 255 255 255
-4.20505  1.24452  15.0069 255 255 255
3.33533 -2.5408 18.4975 255 255 255
-4.86697 -1.68312  13.3698 255 255 255
2.38551 1.87623 16.4744 255 255 255
-3.09928  1.78593  15.2049 255 255 255
1.70723 1.29677 16.4154 255 255 255
-5.69748 -1.65122  13.1277 255 255 255
 4.03193 -2.53035  18.6463 255 255 255
0.306834 -2.38832  17.6304 255 255 255
 2.00218 -2.10468  17.8219 255 255 255
-4.26569  1.57316  12.8632 255 255 255
-5.59462  -1.9071  13.3873 255 255 255
-4.64281 -1.63758  13.3413 255 255 255
-5.40517  1.59459  12.6487 255 255 255
3.40548 1.35995 16.8068 255 255 255
 4.21799 -2.19506  16.6909 255 255 255
-0.53824 -1.87069  15.9702 255 255 255
 4.24648 -2.16815  16.6064 255 255 255
-4.67503 -1.59634   13.286 255 255 255
-1.16639 -1.89401  16.3726 255 255 255
-4.18887   1.6044  12.9196 255 255 255
-4.19206  1.60182  12.9194 255 255 255
-4.35409 0.144082  13.1216 255 255 255
-0.651446  -1.83574   15.8652 255 255 255
-0.849589   2.88784   14.0085 255 255 255
2.43319 1.91956 16.4966 255 255 255
-5.04203  -1.7896  13.2854 255 255 255
 -4.3157 0.143521  13.1366 255 255 255
-4.54819 -1.59544  13.4208 255 255 255
 5.07911 -1.78945  15.6537 255 255 255
-4.17947 -1.66983  14.2303 255 255 255
 4.30106 0.626081  15.1071 255 255 255
 1.30631 -1.97151  17.4329 255 255 255
-5.04263 -1.72085  13.2541 255 255 255
-4.21694 0.165144  15.1738 255 255 255
-5.44205  1.62462  12.6231 255 255 255
-1.15422  1.28431  15.3505 255 255 255
-0.543402  0.634059   15.4096 255 255 255
-5.71147 -1.69934  13.2194 255 255 255
 4.96443 -1.88774  15.5887 255 255 255
-4.93787  -1.6893  13.3597 255 255 255
-5.22986  1.18096   12.735 255 255 255
 4.03246 -2.06605  17.5249 255 255 255
-3.67381  1.36935  15.1857 255 255 255
-5.11144 -1.58974  13.2279 255 255 255
4.24811 1.81197 14.8987 255 255 255
-0.553005   1.36342   15.5401 255 255 255
2.63109 1.44875 16.6189 255 255 255
0.490551 -1.85841   17.233 255 255 255
-1.41985  1.90168  15.5768 255 255 255
1.33644 1.96002 16.2567 255 255 255
 5.50036 -1.71281  16.0228 255 255 255
1.54531 1.42378 16.3614 255 255 255
-3.22199  1.88728  15.1559 255 255 255
-1.06501  1.35741  15.2749 255 255 255
-3.82109 -1.80217   15.532 255 255 255
-3.46987 -1.86766  16.2071 255 255 255
0.367136   1.3874  15.6473 255 255 255
 2.66397 0.232459  16.8185 255 255 255
-4.19886 -1.64393  14.2368 255 255 255
 5.52489 -1.68178  16.0272 255 255 255
-4.92189  -1.4565  13.2989 255 255 255
-5.2276 1.68095  12.664 255 255 255
 1.47944 0.237948  16.5263 255 255 255
 2.33709 -1.93714  17.6899 255 255 255
  -5.243 -1.44023  13.1651 255 255 255
 -4.1257 -1.60412  14.2522 255 255 255
 4.89281 0.247836  15.3799 255 255 255
4.98928 0.24848 15.4523 255 255 255
-5.05416 -1.41959  13.1942 255 255 255
-3.09862  1.40324  15.2377 255 255 255
 1.48857 -1.80168  17.4543 255 255 255
 1.82995 0.264288  16.6212 255 255 255
-5.80152 -1.40295  13.0151 255 255 255
-1.23227  1.90058  15.1623 255 255 255
0.63305  1.9456 15.6354 255 255 255
3.80866 -1.6278 16.1105 255 255 255
 4.03379 -1.71499  16.2567 255 255 255
 3.98604 0.711428  15.1021 255 255 255
-4.58578 -1.45536  13.3237 255 255 255
0.563774 0.277279  15.8744 255 255 255
  3.9693 -1.71469  16.4226 255 255 255
1.51108 2.01983 16.2557 255 255 255
-0.174394  -1.60978   16.0136 255 255 255
-5.02897  1.72086  12.7927 255 255 255
-5.11481 -1.36997  13.1229 255 255 255
3.08394 1.51787  16.822 255 255 255
 4.79417 -1.60235  15.5887 255 255 255
-4.52351  1.71589  12.8218 255 255 255
 -5.1381 -1.34749  13.0131 255 255 255
0.326434 0.291411  15.8192 255 255 255
-4.87006 0.674066  12.8648 255 255 255
-3.04869 -1.65241  15.7692 255 255 255
0.000520771    -1.59204     16.0447 255 255 255
4.50673  -1.547 15.6868 255 255 255
-5.39652  1.71899  12.6294 255 255 255
 6.78008 0.322582  15.3468 255 255 255
 3.91177 0.312406  15.4606 255 255 255
 4.21219 0.730381  15.0248 255 255 255
-4.45585  1.25906  12.9143 255 255 255
5.24701 0.31855 15.2795 255 255 255
-2.45102   1.9673  15.3144 255 255 255
-0.106939  -1.55859   16.0091 255 255 255
 2.39254 -1.81074  17.6699 255 255 255
0.169433 0.331729  15.7738 255 255 255
 2.43747 -1.81209  17.7011 255 255 255
5.39601 1.42016 15.2048 255 255 255
 3.96449 0.751068  15.2344 255 255 255
-5.22478  1.28114  12.7293 255 255 255
-2.17576 -1.53166  15.9568 255 255 255
  4.6507 -1.57329  15.5483 255 255 255
 3.74176 0.359999  16.2095 255 255 255
-3.12386 -1.51994  15.7731 255 255 255
-4.42978  1.75663  12.8353 255 255 255
 2.34033 0.838688  16.6783 255 255 255
-4.73684  -1.3958   13.244 255 255 255
 3.04367 -1.62026  17.2385 255 255 255
-4.89745 -1.28024  13.0562 255 255 255
-5.59153 0.738578  12.7065 255 255 255
 4.67717 -1.43202  15.4953 255 255 255
 2.14716 0.872567  16.5183 255 255 255
-4.87691 -1.34822  12.9858 255 255 255
-5.92829 -1.35137  12.8557 255 255 255
-2.52521   2.0311  15.2972 255 255 255
-2.25973  2.03994  15.3369 255 255 255
 3.8396 -1.4673 16.0997 255 255 255
 -3.9523 -1.58224  15.5224 255 255 255
 5.58203 -1.57718  15.9639 255 255 255
0.0429381   2.03642    15.501 255 255 255
-5.24879 -1.23913  13.0063 255 255 255
-1.60222 -1.63682  16.4153 255 255 255
-0.557511  -1.56624   15.9068 255 255 255
 1.1952 0.87614 16.3721 255 255 255
-1.08743  1.50279  15.2884 255 255 255
-4.01211 -1.34361  13.3464 255 255 255
-4.40998 -1.21613  13.2014 255 255 255
 5.07014 0.852054  15.2988 255 255 255
 -4.8262 -1.09731  11.9093 255 255 255
-5.58395 -1.33014  14.2866 255 255 255
-5.55054 -1.20545  12.9695 255 255 255
-0.493718  -1.41064   15.9007 255 255 255
-4.18332  2.06066  14.8764 255 255 255
-2.06032  1.56945  15.5973 255 255 255
-4.71751 -1.20036  13.1313 255 255 255
-4.62466 -1.19925  13.1504 255 255 255
-4.16545 -1.50334  15.5051 255 255 255
5.25153 2.03104 15.0967 255 255 255
-4.32449 -1.20195  13.2471 255 255 255
-4.06993 -1.39112  15.4756 255 255 255
-0.356566   -1.5016   16.0529 255 255 255
-4.40195 -1.19489  13.2323 255 255 255
-4.94522 -1.18278  13.0942 255 255 255
 1.92553 -1.56219  16.9194 255 255 255
 -4.0287 -1.38653  15.4916 255 255 255
-3.86698 -1.18346  13.3604 255 255 255
0.514637 0.893574   15.753 255 255 255
 2.72831 -1.47201  17.0843 255 255 255
 3.89682 -1.46792  16.1771 255 255 255
 4.12865 -1.32532  15.4555 255 255 255
4.56862 -1.3343 15.5471 255 255 255
2.48366 2.22682   16.46 255 255 255
3.45059 2.26513  16.688 255 255 255
 2.98718 -1.55917  17.1802 255 255 255
-2.76801 -1.45661  15.8081 255 255 255
-4.82177  1.87686   12.814 255 255 255
-4.13896  1.86945  12.8775 255 255 255
 -2.2471 -1.37827  16.1269 255 255 255
-2.45735   1.5992  15.3667 255 255 255
-5.29779  1.87129  12.6134 255 255 255
3.96354 -1.3219 15.8984 255 255 255
 2.96966 -1.54816  17.2974 255 255 255
 1.81237 0.959704  16.4166 255 255 255
 2.29751 -1.51279  16.9426 255 255 255
-0.890895   1.58109   15.2972 255 255 255
 1.96307 0.972404  16.5026 255 255 255
-4.06528 -1.22303  13.3111 255 255 255
 -1.7993 -1.44767  16.0868 255 255 255
 2.80066 -1.37912  17.1054 255 255 255
-5.22854 0.850836  12.7942 255 255 255
-2.68955 -1.42507   15.817 255 255 255
-2.24493  2.15837  15.3262 255 255 255
-2.83983 0.375241  15.5189 255 255 255
-2.02885   1.6679  15.7018 255 255 255
-3.83672 0.955154  15.1837 255 255 255
-2.14608 -1.27461  15.9559 255 255 255
-4.46747 0.871507  12.9756 255 255 255
 1.79679 -1.32191  16.8954 255 255 255
 3.09763 -1.35328  17.3252 255 255 255
-4.51955  1.91045  12.8061 255 255 255
-3.22807  2.16912  15.0954 255 255 255
-4.05829 0.989408  15.0664 255 255 255
0.433861  2.17314  15.5254 255 255 255
  3.9158 -1.15842  15.1547 255 255 255
-3.07585 0.375833  15.4951 255 255 255
1.71527 1.73859 16.3613 255 255 255
-4.85938  -1.0377  13.1562 255 255 255
-3.23941 0.395306  15.3722 255 255 255
-4.11679  1.91836  12.8697 255 255 255
 0.45951 0.396607  15.8338 255 255 255
-4.1958 1.67654 14.9381 255 255 255
0.471273  1.00595  15.7242 255 255 255
-4.47526  1.92835  12.8088 255 255 255
-3.19724  1.01454  15.2898 255 255 255
-0.0959694    2.19904    15.5299 255 255 255
2.64901 2.31927 16.4859 255 255 255
-3.25341 0.422668  15.3658 255 255 255
-2.90014  2.22082  15.2892 255 255 255
-0.390646  -1.41898   16.0341 255 255 255
-1.68593 0.430066  15.7912 255 255 255
  1.0853 -1.24979  16.7918 255 255 255
-5.15233  -3.0414  14.1853 255 255 255
3.17168 -1.2782 17.2022 255 255 255
 5.11173 -1.14138  15.4643 255 255 255
-1.95954  1.72705   15.644 255 255 255
-5.51823 0.409371  12.7263 255 255 255
-5.50536  0.41343   12.785 255 255 255
-4.97059 -1.18265  13.0644 255 255 255
-4.17453 0.407804  13.1192 255 255 255
-0.931003  -1.16737   15.8459 255 255 255
-5.06612 -3.00028  14.2373 255 255 255
0.0587317  -1.17039   15.9971 255 255 255
-4.2076 1.03018  15.042 255 255 255
 -4.27048 -0.990148   13.3083 255 255 255
3.08126 1.82086 16.7409 255 255 255
-1.4979 1.72699 15.5827 255 255 255
-4.67975 -3.38812   16.763 255 255 255
0.633112  1.71749  15.6446 255 255 255
-4.14657 -1.14108  15.4428 255 255 255
-5.35205 -3.32604  16.3696 255 255 255
3.18476 2.40817 16.7304 255 255 255
-5.31012 0.436986   12.845 255 255 255
 4.45367 -1.31609  15.4707 255 255 255
-2.31785 -1.13657  15.9293 255 255 255
-1.59336  1.03863  15.6385 255 255 255
-4.85467 -3.42719  17.7103 255 255 255
-2.06072 -1.13355  15.9905 255 255 255
 -4.11007 -0.956491   13.3344 255 255 255
 4.02695 0.481283  15.0018 255 255 255
5.71093 2.23226 15.2141 255 255 255
5.70181 2.22742 15.1988 255 255 255
-1.67064 -1.37593  16.0528 255 255 255
 4.26312 0.481389  15.0994 255 255 255
-5.41443 0.453424  12.8193 255 255 255
 4.60546 -3.08814  16.7991 255 255 255
5.00719 2.19933 14.9688 255 255 255
 -5.71655 -0.925906   12.8492 255 255 255
-5.36443 0.455017    12.84 255 255 255
  -5.527 -1.12424  13.0234 255 255 255
 -2.2775 0.502677  15.5834 255 255 255
 2.31075 -3.43778  18.8668 255 255 255
5.58056 1.72946 15.2516 255 255 255
-3.39035  1.76215   15.126 255 255 255
-3.62756  2.27243  15.0152 255 255 255
3.08936 2.43706 16.6972 255 255 255
-2.08055 -1.07975  15.9039 255 255 255
 1.79703 -1.37701   16.874 255 255 255
0.852252 -1.12111  16.6151 255 255 255
-4.34976 0.474174  13.0492 255 255 255
-2.42202   1.7722  15.3571 255 255 255
 3.76702 -1.04328   15.787 255 255 255
  2.4609 0.550902  16.7069 255 255 255
-0.932698   2.24869   15.1618 255 255 255
-5.62828  1.55121  12.5841 255 255 255
-0.711755   -3.1498   17.5716 255 255 255
 4.24446 0.510447  15.0494 255 255 255
-0.888449  -3.11554   17.4771 255 255 255
0.125221 -1.30476  16.3268 255 255 255
-0.748891  -1.03031   15.6215 255 255 255
 2.23799 -1.35302  16.9338 255 255 255
  4.45508 -0.996817   15.2957 255 255 255
-1.48941  2.31455  15.4932 255 255 255
-0.325931  -3.10533   17.6229 255 255 255
2.31053 1.87697 16.5109 255 255 255
0.843961  1.09809  16.2401 255 255 255
-3.71011 -1.03405  15.3961 255 255 255
0.0175412  -3.22298   18.2718 255 255 255
 3.58377 0.570849  16.7889 255 255 255
 3.94226 0.518409   15.036 255 255 255
 -5.38229 -0.886369   13.0352 255 255 255
0.261255 -1.04469  16.0337 255 255 255
-4.79434  2.01575  12.7293 255 255 255
-4.71335  2.01238  12.7107 255 255 255
 2.25564 -3.25294  18.8864 255 255 255
 4.46792 -3.25811   18.945 255 255 255
-2.97725 -1.01989    15.59 255 255 255
-1.62449 -1.27358  16.1822 255 255 255
2.64531 1.89966 16.5544 255 255 255
 5.75265 0.548141  15.5558 255 255 255
-2.41882  1.81268  15.3478 255 255 255
0.661053  2.32965  15.5449 255 255 255
 2.87356 -1.33345   17.127 255 255 255
3.05256 2.47434 16.5551 255 255 255
-2.84822  2.32848  15.1464 255 255 255
 3.26574 -3.14935  18.6922 255 255 255
-2.45709  2.33255  15.2467 255 255 255
-2.15039 -1.00124  15.7352 255 255 255
-5.56578 -1.05041  13.0101 255 255 255
 -2.0799 -1.01154  15.8818 255 255 255
5.23175 1.08716 15.2507 255 255 255
  3.8856 0.567663   15.392 255 255 255
  5.66933 -0.970985   15.5784 255 255 255
 -1.93368 -0.999658   15.7975 255 255 255
-5.43178 -1.04302  13.0457 255 255 255
-3.57607 -1.23359  15.6926 255 255 255
3.28862  2.4959 16.5912 255 255 255
3.69858  1.1443 16.3813 255 255 255
0.319784 -2.97257  17.9653 255 255 255
  3.79166 -0.965559   15.6928 255 255 255
5.10922 2.28274 14.9752 255 255 255
-4.15087 -1.21199  15.4446 255 255 255
-4.14128 0.585448   15.103 255 255 255
 1.91558 -1.29166  16.9665 255 255 255
 2.34419 -1.28977  17.0331 255 255 255
 -2.05084 -0.969854    15.742 255 255 255
5.35393 -1.1857 15.6513 255 255 255
-4.70936  2.06344  12.7061 255 255 255
-5.33541 -1.03521  13.0749 255 255 255
 4.53899 0.582996  15.1754 255 255 255
 -5.50932 -0.801055   12.9413 255 255 255
-3.21607  1.84649  15.1267 255 255 255
-0.325793  -2.84579   17.3994 255 255 255
-2.44732  2.36486  15.0852 255 255 255
-2.46245  1.85592  15.3338 255 255 255
0.886911  1.15973  16.2622 255 255 255
-0.332983   1.12549   15.6077 255 255 255
 3.75221 0.628666  15.9883 255 255 255
-2.28595  2.38875  15.2753 255 255 255
-2.85767 -2.84896  17.2249 255 255 255
 -5.24112 -0.787517   13.0291 255 255 255
3.71995 2.46632 16.0498 255 255 255
-4.06319 0.568801  13.1902 255 255 255
2.48095 1.96779 16.4964 255 255 255
-4.14561  2.38042  14.8304 255 255 255
-3.63401 0.640715  15.1785 255 255 255
  4.83053 -0.883567    15.449 255 255 255
1.03007 2.47063 16.0482 255 255 255
-4.11537  2.39339  14.8973 255 255 255
 2.98622 -3.10959  19.5913 255 255 255
 -3.14179 -0.900633   15.4773 255 255 255
-3.23473 0.657906  15.5864 255 255 255
 -1.14573 -0.892666   15.5404 255 255 255
1.46979 2.49786  16.127 255 255 255
1.81047 2.50714 16.2013 255 255 255
 -1.4979 0.654104  15.6685 255 255 255
 3.26985 -2.93433  18.6182 255 255 255
 2.79308 0.686958  16.7682 255 255 255
-2.52605  2.41991  15.2319 255 255 255
 -3.99222 -0.884419   15.2903 255 255 255
  1.85559 -0.944338   16.7547 255 255 255
-2.52191 0.662017  15.3931 255 255 255
 2.58382 -1.24946  17.3032 255 255 255
-4.81934  1.03488   12.928 255 255 255
-0.470203 -0.879747   15.7128 255 255 255
1.03385 -2.8482 18.2105 255 255 255
-0.333977   2.34832   14.9659 255 255 255
 1.74945 0.696416  16.5255 255 255 255
-1.52067 0.683827   15.655 255 255 255
 1.73043 -1.18083   17.034 255 255 255
6.78896 1.81927 14.5468 255 255 255
  1.42731 -0.918419   16.5555 255 255 255
-0.0990672   -1.08993    15.9415 255 255 255
 0.643018 -0.912981   16.4289 255 255 255
 2.43038 0.739841  16.6392 255 255 255
 1.89232 -2.80505  18.3819 255 255 255
-3.92996  -0.8602  15.3381 255 255 255
-4.89914 0.639944  12.8709 255 255 255
 2.3138 2.04501 16.5335 255 255 255
-4.56785  2.12038  12.7023 255 255 255
-4.20239  1.18572  15.0076 255 255 255
-3.67821 0.715095  15.2601 255 255 255
-0.310696  -1.09355   15.9924 255 255 255
3.40367 2.58877 16.5448 255 255 255
-5.51926 -0.72644  12.9484 255 255 255
-1.79634 0.726822  15.6382 255 255 255
 -3.74888 -0.854987   15.3782 255 255 255
-3.94831  2.13119  12.8477 255 255 255
 4.10081 -2.82831  18.8657 255 255 255
 3.71729 0.742784  16.1877 255 255 255
-4.10566 -1.07227  15.3853 255 255 255
4.32358 -2.5158 16.9814 255 255 255
-3.05551  2.43074  15.0403 255 255 255
3.76719 1.98426 15.9061 255 255 255
-1.64185 -1.10366  16.0545 255 255 255
-2.81598   2.4345  15.1005 255 255 255
-3.39474  1.95316  15.1377 255 255 255
  2.18178 -0.907734   16.8703 255 255 255
-0.805973  -1.07444    15.776 255 255 255
-2.06901  2.45452   15.275 255 255 255
0.157086 -2.61064  17.7358 255 255 255
-1.9234 2.45613 15.3127 255 255 255
 -1.99399 -0.852257   15.7516 255 255 255
-1.83778  2.46135  15.3643 255 255 255
0.390437  1.20956  15.6983 255 255 255
-5.22211  1.71569  12.6616 255 255 255
 -4.64622 -0.913737   13.1711 255 255 255
  2.25495 -0.896861   16.7394 255 255 255
 1.98424 0.758276  16.5082 255 255 255
 3.27531 -0.91905  17.1536 255 255 255
-5.17011 -2.01319  13.2309 255 255 255
-3.50818 -1.07032  15.5867 255 255 255
-3.44949  2.41651  14.7815 255 255 255
-1.60711 0.745926  15.7024 255 255 255
  5.69602 -0.827672   15.6561 255 255 255
-5.68668  2.13104  12.3765 255 255 255
-0.621241  -2.48171   17.0227 255 255 255
 -1.78762 -0.845179   15.8067 255 255 255
-0.112722 -0.847288   15.9042 255 255 255
 2.44169 -1.13203  17.1186 255 255 255
0.0782948 -0.843269   15.8777 255 255 255
0.170604 -0.83862   15.886 255 255 255
 -4.89677 -0.886737   13.1144 255 255 255
-2.12853  1.22686  15.5276 255 255 255
 5.53169 0.756036  15.3862 255 255 255
 -2.78901 -0.840909   15.6381 255 255 255
-3.68053 -1.03798   15.465 255 255 255
-1.72326  2.47053  15.3271 255 255 255
